# .PCD v0.7 - Point Cloud Data file format
VERSION 0.7
FIELDS x y z
SIZE 4 4 4
TYPE F F F
COUNT 1 1 1
WIDTH 180
HEIGHT 1
VIEWPOINT 0 0 0 1 0 0 0
POINTS 180
DATA ascii
-24.899147 -37.790588 -26.820408
-24.408615 -34.308361 -24.09355
-23.630922 -33.687996 -24.921707
-25.318861 -34.71151 -26.778719
-26.363918 -35.594185 -25.68314
-23.583242 -35.738075 -25.714582
-25.186769 -34.593937 -23.994518
-23.549114 -37.227123 -25.346153
-26.262333 -37.542557 -25.994663
-24.956266 -38.504417 -23.977917
-23.8983 -39.160782 -24.465603
-23.67024 -39.780685 -25.976204
-26.114016 -37.278683 -26.245169
-25.246685 -32.131001 -25.518032
-23.560743 -36.674263 -25.589882
-26.184927 -40.065769 -24.660313
-24.84655 -36.245956 -23.98299
-25.412928 -40.451881 -24.048475
-24.125345 -36.147522 -24.256157
-25.191751 -36.024429 -26.804718
-25.710697 -39.620514 -26.614094
-26.305367 -34.623726 -24.909546
-23.74411 -39.55899 -26.120449
-24.50169 -40.587143 -26.742683
-24.196335 -32.734734 -26.59309
-26.335705 -36.341064 -25.002464
-24.09927 -32.131001 -24.815685
-25.767849 -37.245731 -24.222567
-25.360094 -33.534336 -26.76762
-24.489603 -32.192581 -26.591278
-24.764256 -32.131001 -24.944393
-26.355129 -35.576073 -25.723751
-25.268698 -35.331272 -26.790588
-23.695618 -40.557625 -24.76959
-23.579929 -39.454494 -25.699497
-24.992332 -40.237404 -23.978096
-23.679718 -38.972099 -24.802269
-23.548826 -33.976425 -25.358959
-25.065945 -39.489784 -26.818832
-26.1026 -33.645844 -24.539278
-26.269691 -39.596428 -24.822052
-24.160225 -32.633877 -26.569019
-26.389547 -37.699341 -25.309963
-26.305779 -32.611496 -25.889399
-25.970491 -32.53059 -26.411173
-24.28298 -41.006897 -24.155075
-25.240263 -33.810783 -26.796238
-26.070425 -36.032608 -26.301207
-25.904718 -39.791641 -24.32802
-26.267921 -39.361462 -24.818027
-26.169773 -35.981934 -24.635361
-25.231516 -34.188873 -26.797976
-23.918186 -35.083817 -24.442894
-24.190102 -35.382778 -24.211063
-24.403845 -35.352715 -24.095652
-25.74645 -36.943726 -26.5917
-26.270731 -41.038925 -25.975582
-25.212349 -36.86496 -23.99844
-26.381277 -36.301247 -25.579464
-26.103901 -35.702202 -26.258953
-23.682411 -41.109379 -26.003561
-24.998056 -34.796864 -26.821774
-23.911741 -34.967125 -24.450258
-25.406597 -32.131001 -26.1614
-23.98243 -38.959999 -26.422932
-26.02335 -34.191933 -24.443968
-24.889599 -39.171516 -26.819792
-23.571209 -41.143173 -25.655602
-24.00511 -34.952393 -24.355396
-23.58103 -41.593925 -25.705023
-25.538975 -40.709309 -24.096584
-26.330345 -37.701973 -25.815903
-25.961138 -39.394955 -26.420132
-26.09466 -34.195507 -24.528948
-24.455803 -35.266365 -26.7257
-25.307339 -41.322701 -24.018452
-23.843906 -37.525986 -26.268402
-26.238075 -36.857582 -24.755508
-25.94161 -38.339413 -24.361172
-25.689373 -33.387138 -26.627026
-26.392174 -38.289204 -25.374954
-26.002151 -37.679443 -24.421404
-26.330448 -41.05611 -24.984455
-24.836681 -40.014469 -23.98407
-24.566839 -32.131001 -25.18243
-26.39156 -39.606693 -25.345654
-24.107582 -39.573219 -26.53083
-24.316566 -36.942936 -26.663208
-26.26018 -39.496586 -24.800442
-23.548038 -32.459194 -25.406111
-25.21151 -39.638664 -26.801689
-26.340933 -32.956158 -25.779629
-26.234421 -32.44907 -26.051897
-25.040464 -40.135445 -23.979521
-24.180223 -35.657745 -26.58235
-25.724144 -36.645538 -26.605942
-24.163616 -38.512535 -24.228722
-26.129372 -38.18108 -26.224251
-23.811237 -39.208481 -26.224125
-23.605639 -36.496208 -25.799744
-25.755974 -34.543602 -24.214649
-23.847847 -38.982212 -24.526682
-23.982414 -36.426052 -24.377085
-24.22633 -41.290062 -26.611891
-26.166164 -34.708553 -24.629963
-25.911331 -32.163765 -24.568506
-23.639536 -40.104652 -24.898506
-25.672701 -38.041359 -24.163364
-25.281536 -38.345261 -24.012119
-26.376198 -32.565147 -25.614107
-23.967422 -41.442417 -24.391411
-26.147673 -37.361069 -26.197699
-25.79925 -36.508766 -26.555626
-25.431408 -35.887245 -24.054764
-23.580717 -32.483097 -25.703463
-23.548164 -36.39418 -25.388229
-25.194723 -36.58532 -26.804262
-23.550329 -33.272205 -25.477968
-25.463432 -38.220192 -26.73402
-23.662254 -32.243038 -25.133087
-26.248552 -33.104504 -24.776726
-23.578501 -40.465725 -25.692295
-26.113123 -34.45396 -24.553612
-25.935028 -35.403027 -26.445131
-23.651073 -38.215374 -25.931131
-25.160805 -32.131001 -24.861382
-24.843777 -38.232338 -26.81671
-24.620214 -34.989044 -24.021675
-25.438314 -33.028389 -26.742887
-24.055292 -32.147903 -24.562914
-25.625408 -40.818951 -24.137466
-24.280296 -35.678413 -26.64345
-25.616604 -33.167904 -24.133129
-25.912195 -41.354843 -26.465431
-26.208017 -41.498646 -26.10058
-23.643959 -32.251099 -25.188589
-26.348463 -32.287094 -25.341984
-24.333126 -35.03653 -24.128645
-24.434067 -37.057568 -24.08276
-26.306467 -39.205872 -25.887615
-26.387056 -37.363243 -25.526257
-25.961155 -35.730274 -24.379889
-23.94314 -32.131001 -25.445686
-26.346895 -33.458485 -25.757469
-26.381292 -35.933517 -25.220676
-24.575871 -41.159206 -26.766258
-24.926374 -35.782795 -26.821407
-26.391769 -41.272083 -25.355646
-25.279713 -38.94994 -24.011671
-24.760204 -32.131001 -24.592587
-24.825722 -35.303406 -26.814722
-25.347042 -32.203094 -24.160875
-25.803513 -38.032051 -24.247509
-26.262947 -39.513458 -25.993273
-24.447557 -34.367435 -26.722492
-26.196259 -34.942699 -26.120998
-26.376352 -40.000328 -25.613106
-26.373398 -34.364418 -25.167826
-24.916983 -35.930744 -26.821196
-23.95542 -39.949455 -26.396315
-23.562195 -37.926037 -25.599348
-24.011402 -40.607487 -26.450457
-25.467871 -32.440113 -26.7323
-24.797026 -39.333012 -23.988441
-24.542538 -35.062943 -24.043421
-24.586546 -33.623203 -26.769356
-26.287304 -32.990147 -24.862934
-24.136967 -32.131001 -25.732494
-23.724651 -35.160755 -26.086002
-24.023552 -34.221371 -24.338881
-23.54855 -35.248543 -25.428795
-23.601915 -37.26162 -25.013004
-23.646732 -37.103485 -24.88002
-23.78907 -37.044903 -24.608229
-24.345545 -38.938026 -26.677464
-23.558739 -36.997684 -25.226654
-23.750538 -40.334961 -26.13105
-23.599281 -37.736057 -25.02203
-23.989733 -32.131001 -25.910044
-25.915524 -37.456638 -24.337482
