# .PCD v0.7 - Point Cloud Data file format
VERSION 0.7
FIELDS x y z
SIZE 4 4 4
TYPE F F F
COUNT 1 1 1
WIDTH 151
HEIGHT 1
VIEWPOINT 0 0 0 1 0 0 0
POINTS 151
DATA ascii
-25.015442 -44.450005 -26.54583
-27.127367 -41.655998 -24.559065
-26.900759 -41.655998 -24.493212
-24.107025 -41.655998 -26.64266
-26.969162 -44.450001 -24.74461
-25.739479 -42.41573 -23.207365
-23.839243 -41.655998 -24.46011
-26.711571 -41.655998 -24.800634
-22.707569 -42.467628 -25.928619
-25.355173 -44.450005 -24.297325
-22.816109 -43.12965 -24.528599
-23.315239 -42.753662 -27.031204
-26.699461 -44.450001 -25.153511
-23.757977 -42.441406 -27.38217
-23.892885 -44.441235 -25.601591
-24.843363 -44.450001 -23.411486
-22.828638 -44.35799 -25.852789
-25.497324 -44.450005 -24.280008
-22.880495 -44.449997 -25.771515
-24.433983 -44.450001 -26.532217
-25.868404 -44.450001 -24.229954
-26.966528 -41.941338 -26.589317
-24.023968 -44.450001 -24.442928
-27.186987 -43.75275 -26.098595
-23.438023 -44.450001 -24.799311
-27.168152 -44.177986 -24.747025
-23.391081 -43.134472 -27.10478
-24.91819 -43.667549 -23.07703
-23.846806 -41.655998 -27.219112
-24.212055 -44.447769 -24.645567
-24.128983 -43.295509 -24.789454
-25.683374 -43.855267 -24.567326
-26.156048 -43.867359 -25.413948
-22.660015 -43.033066 -25.152344
-26.77404 -43.293648 -26.864826
-27.181438 -42.072456 -26.114979
-26.452564 -41.655998 -25.500046
-23.884983 -42.985229 -27.454792
-26.43539 -43.865444 -23.596508
-22.914446 -41.655998 -24.70425
-23.353203 -44.450001 -26.509636
-24.212078 -44.036461 -24.645527
-26.864439 -44.450005 -25.661415
-26.657164 -44.448807 -26.7115
-26.744144 -44.449997 -24.964231
-24.535221 -43.945866 -23.11747
-23.877598 -42.054123 -23.349262
-23.388197 -44.108032 -23.697979
-24.314495 -43.104477 -25.531555
-26.281025 -41.655998 -26.07605
-24.510921 -44.246944 -27.605686
-26.346752 -42.141659 -27.271963
-24.239445 -44.324707 -26.201876
-25.018208 -43.955681 -26.433903
-27.021969 -41.655998 -25.161224
-23.203064 -41.655998 -24.873177
-23.190918 -44.450001 -24.78603
-24.16301 -44.009125 -24.730522
-26.914112 -41.951225 -26.673193
-24.535891 -44.450001 -27.288219
-24.570707 -44.450001 -26.713203
-23.116913 -41.655998 -25.911165
-25.805037 -42.489674 -27.568432
-22.728249 -43.684841 -24.788729
-23.493893 -44.210297 -27.129932
-23.230598 -42.110657 -26.940212
-25.673435 -41.655998 -27.015614
-25.241497 -41.902298 -27.707747
-23.898014 -44.449997 -25.775707
-25.520002 -41.655998 -23.785112
-23.271713 -44.302567 -26.831322
-23.540358 -44.198154 -27.177256
-22.879772 -44.450001 -25.336559
-25.320606 -43.10947 -24.726406
-23.710091 -41.785141 -27.352415
-22.845652 -43.073673 -26.340569
-24.343483 -43.80513 -24.417915
-25.994722 -44.199394 -25.106619
-27.132788 -44.248093 -24.770378
-22.820866 -41.942333 -26.283648
-23.826252 -43.962948 -23.377447
-23.619625 -43.512081 -23.509165
-24.121683 -44.397057 -24.802101
-24.87693 -41.655998 -27.126259
-26.142057 -43.502796 -25.361824
-24.040815 -44.450001 -24.016012
-24.26972 -43.215324 -24.545689
-25.394501 -43.204506 -26.433901
-24.702047 -44.450001 -27.390417
-24.732506 -44.130486 -27.707996
-24.222095 -43.139675 -24.866467
-26.370012 -44.450005 -26.677959
-27.033892 -43.478046 -26.468864
-25.900385 -44.035721 -23.270689
-23.869236 -44.450001 -27.158966
-26.868229 -41.868885 -26.741016
-24.885002 -41.655998 -26.896988
-23.026024 -43.939201 -26.672392
-23.484442 -44.450001 -24.777945
-24.32987 -43.279434 -26.358501
-24.726727 -44.018147 -26.433901
-22.720312 -43.804527 -24.819298
-24.561375 -41.655998 -27.29435
-26.78187 -44.450001 -25.056934
-25.844402 -43.803291 -25.953753
-24.185989 -43.473778 -27.587494
-22.825836 -44.382309 -25.763597
-23.020802 -44.130989 -26.657932
-24.530968 -43.108608 -24.827559
-25.777786 -42.839973 -23.220989
-24.918514 -44.450001 -24.041838
-24.999634 -44.402626 -24.3661
-24.240196 -41.655998 -26.748608
-23.865002 -43.921043 -25.553291
-26.021832 -41.694107 -23.327806
-24.066792 -44.450001 -23.498474
-24.592499 -44.167854 -23.132498
-25.973904 -44.444489 -27.289076
-26.388145 -42.957962 -27.241358
-24.993002 -43.031582 -25.451757
-25.697269 -43.687687 -26.208607
-26.498848 -43.149616 -27.150021
-23.600893 -41.655998 -24.013048
-23.969288 -44.082485 -25.066071
-24.384481 -44.371861 -26.433899
-27.241508 -42.658234 -24.908094
-26.667309 -41.655998 -24.722147
-26.793938 -42.775589 -26.840042
-24.588352 -43.873802 -24.3661
-27.252724 -43.28904 -25.835608
-24.052456 -42.997398 -23.265305
-27.16011 -44.262405 -24.907957
-25.800751 -43.869896 -23.229906
-23.041498 -43.788811 -26.69556
-24.989462 -43.154537 -26.433392
-25.044552 -42.981071 -23.077511
-27.293392 -42.195889 -25.44648
-27.13644 -44.393147 -25.292362
-24.216711 -41.655998 -27.576385
-24.408192 -43.275543 -23.145462
-25.828152 -42.484909 -27.559448
-22.99548 -43.553333 -24.175537
-22.762835 -43.386219 -26.125507
-26.870617 -43.523006 -26.737757
-26.297768 -44.450001 -24.927574
-25.196182 -41.807159 -23.087265
-23.914597 -44.450001 -24.000538
-26.540628 -41.655998 -26.396051
-25.21335 -41.990273 -23.089153
-25.426624 -42.219994 -27.678308
-26.481535 -42.981964 -23.634802
