# .PCD v0.7 - Point Cloud Data file format
VERSION 0.7
FIELDS x y z
SIZE 4 4 4
TYPE F F F
COUNT 1 1 1
WIDTH 331
HEIGHT 1
VIEWPOINT 0 0 0 1 0 0 0
POINTS 331
DATA ascii
-26.533375 -41.655998 -25.250767
-23.386322 -43.186035 -27.100227
-23.342665 -41.655998 -26.558914
-24.321533 -41.757629 -27.631104
-24.400078 -43.782608 -23.147448
-24.410339 -33.580948 -24.092793
-23.721869 -42.071106 -23.439735
-25.958147 -35.644753 -24.377007
-25.400932 -43.795219 -26.433903
-23.459723 -41.655998 -26.080524
-22.985355 -41.920425 -24.192204
-22.664444 -42.993187 -25.688227
-26.36655 -44.450001 -25.104366
-23.625278 -37.562012 -24.938377
-23.890953 -41.069927 -26.326008
-24.407858 -35.996071 -24.093885
-26.154091 -38.509262 -26.188095
-24.417696 -38.567856 -24.089554
-25.464701 -37.609863 -26.73353
-23.925838 -37.996563 -26.365425
-26.289661 -38.546329 -24.86902
-24.104048 -34.438351 -26.528215
-24.292624 -44.056423 -24.506012
-26.3463 -34.329418 -25.0401
-25.258667 -43.080727 -25.788712
-26.213488 -32.559696 -26.090593
-25.211044 -41.027802 -23.998241
-25.084705 -32.131001 -24.373831
-23.556458 -41.062523 -25.552635
-23.548754 -38.818752 -25.43782
-25.792873 -39.553066 -24.239698
-24.350954 -44.170357 -26.395021
-24.248678 -41.655998 -23.334507
-24.244287 -43.834084 -24.589737
-23.657486 -43.454338 -27.317284
-24.49474 -37.536499 -24.059679
-26.389671 -37.189667 -25.488121
-25.915749 -38.01458 -24.337679
-24.187841 -42.609745 -23.21188
-23.567408 -40.504959 -25.166645
-26.310936 -35.248577 -25.874636
-23.910295 -34.39727 -24.451908
-25.148432 -38.761177 -26.811035
-26.1217 -38.743988 -26.234701
-24.49645 -40.405045 -26.740902
-23.829599 -34.432823 -26.249142
-23.568127 -43.645714 -23.546938
-25.693199 -35.610245 -24.175297
-23.737743 -38.687321 -26.109821
-23.758568 -42.390301 -23.417473
-24.330145 -41.153343 -26.669888
-24.288723 -42.381737 -27.621529
-23.845867 -39.709084 -24.529148
-23.613068 -41.119774 -24.974806
-25.597687 -32.454239 -26.676197
-24.338881 -39.904747 -26.674187
-23.726816 -41.655998 -24.492508
-23.856789 -33.209911 -24.515528
-24.314816 -39.991913 -24.137653
-25.738914 -36.647194 -24.203276
-23.87348 -33.507874 -24.494703
-24.897486 -35.223366 -26.820301
-26.097067 -33.346531 -26.268059
-24.507402 -43.080231 -25.478477
-27.218462 -44.254295 -25.35132
-27.045601 -44.450001 -25.322582
-26.081972 -41.895046 -27.440382
-24.514988 -33.242393 -24.052794
-23.854351 -35.996971 -26.281431
-23.679455 -41.655998 -24.366116
-26.936661 -44.450001 -25.611076
-25.993126 -37.22459 -24.411978
-26.322447 -39.269211 -25.840796
-26.581587 -44.450001 -26.350819
-25.993046 -38.962379 -26.388103
-26.039799 -37.352985 -24.462749
-26.091114 -34.757023 -24.524534
-26.26202 -41.072674 -25.995377
-26.366405 -43.796047 -27.257528
-25.651855 -34.30526 -26.64809
-25.909595 -37.469212 -26.467705
-24.820507 -43.836956 -24.3661
-24.846733 -38.663803 -26.81702
-24.001274 -43.911728 -25.789333
-24.100048 -44.449997 -23.850731
-24.98764 -43.401794 -26.433903
-25.836399 -39.307419 -26.528339
-22.703358 -43.533184 -24.888588
-24.78326 -43.892017 -27.716309
-25.442387 -43.650555 -26.433903
-23.57839 -41.554218 -25.10825
-24.251081 -44.449997 -24.558365
-23.937098 -34.212997 -24.422813
-25.926544 -43.861973 -25.811478
-22.694525 -43.195465 -25.868994
-25.683014 -40.774082 -24.169119
-23.572754 -37.37682 -25.136614
-26.789806 -43.668278 -26.845188
-23.9151 -40.459766 -26.353577
-23.108913 -43.201836 -24.009178
-24.76516 -43.693016 -24.3661
-25.916842 -43.147018 -25.707264
-22.956848 -44.450005 -25.09409
-27.216757 -41.971123 -24.804855
-25.712566 -44.054836 -24.617893
-24.998295 -43.062122 -25.104429
-22.71002 -43.970303 -24.861357
-25.074471 -42.611519 -27.72172
-25.187065 -35.833282 -26.805435
-24.892733 -40.219761 -26.819992
-26.20747 -37.927818 -26.101578
-23.552849 -41.644138 -25.283012
-25.337416 -33.174271 -24.025833
-26.844257 -43.983261 -24.026247
-23.922318 -41.655998 -23.656857
-24.644176 -42.122421 -27.700695
-25.700844 -32.131001 -24.43166
-24.009537 -44.450001 -27.128588
-24.11459 -39.219952 -24.264034
-26.244652 -36.226425 -26.031174
-23.31197 -44.13092 -23.777489
-25.076839 -36.413803 -26.818127
-23.433044 -43.854427 -27.142338
-24.288149 -44.233871 -24.513767
-27.272327 -43.032841 -25.082468
-26.20335 -39.114571 -24.690899
-25.726017 -44.450005 -23.809847
-22.672203 -43.375126 -25.056881
-23.626482 -35.812576 -24.934828
-23.439396 -41.655998 -24.633766
-24.983139 -33.946781 -26.822109
-26.693506 -41.655998 -25.634647
-25.996225 -36.439308 -26.384783
-24.794506 -33.917767 -26.811281
-24.798609 -44.450005 -27.431026
-27.045334 -41.655998 -25.419151
-24.02223 -35.557568 -26.459963
-25.500845 -40.622448 -26.719484
-26.928404 -42.379208 -26.651836
-23.559914 -41.666676 -27.247036
-24.175594 -32.131001 -24.511627
-23.78616 -43.984688 -27.399271
-25.800602 -44.450005 -23.638359
-24.480633 -40.785049 -26.735367
-23.618206 -39.066509 -24.959282
-26.303978 -40.603703 -24.90596
-25.178747 -43.64917 -23.085344
-27.260433 -42.484276 -25.00507
-23.714073 -44.450005 -25.921261
-25.421963 -42.739391 -23.120764
-26.381359 -36.625061 -25.578703
-25.047562 -44.109253 -24.3661
-24.586346 -43.099857 -25.928663
-26.872385 -44.336338 -26.508886
-23.772472 -35.640816 -24.633049
-24.220299 -43.912548 -23.200869
-23.816761 -34.418159 -24.568352
-24.37998 -36.632545 -26.693844
-24.44055 -39.601677 -26.719765
-23.555878 -37.948715 -25.252628
-26.369024 -32.73077 -25.14255
-25.264908 -41.44268 -24.008657
-25.22044 -43.074692 -25.758619
-23.562344 -41.602089 -25.199677
-23.549789 -35.152191 -25.330391
-25.880466 -34.476994 -24.307081
-27.199303 -43.205166 -24.743786
-25.414782 -43.659519 -23.119335
-26.392448 -34.238842 -25.411888
-23.889946 -38.230354 -26.324856
-25.805378 -44.450001 -26.918255
-23.549473 -35.750908 -25.464687
-26.330097 -36.705345 -25.816748
-23.748299 -43.584328 -27.376297
-23.786201 -41.655998 -23.547815
-25.608315 -37.637375 -26.670956
-24.438919 -38.601894 -26.719128
-26.696602 -43.279243 -23.844481
-23.566597 -40.573639 -25.628067
-24.921627 -35.518173 -26.821299
-25.765684 -44.450001 -23.548899
-23.551456 -33.616661 -25.3046
-22.764915 -42.055817 -24.668365
-26.096737 -44.449997 -25.667116
-25.025414 -39.242729 -26.821156
-26.041931 -35.968094 -24.465183
-23.797619 -33.880619 -24.59544
-25.098057 -43.109344 -24.727411
-23.955082 -44.450001 -26.034735
-24.226698 -43.535118 -23.198698
-24.61129 -40.346874 -24.023867
-23.807703 -42.404465 -23.387663
-23.559349 -35.337914 -25.221111
-25.832901 -41.655998 -23.531841
-25.939587 -35.497787 -26.440765
-24.109222 -41.17651 -26.53203
-25.969326 -37.540321 -26.412289
-27.024656 -43.470444 -26.486143
-23.827602 -33.283985 -24.553581
-22.693768 -44.186905 -25.1745
-24.052559 -44.449997 -24.545891
-25.160576 -40.016678 -26.8095
-22.709316 -43.723911 -24.864237
-23.882896 -41.655998 -23.47263
-25.481571 -36.16433 -26.726974
-26.246101 -41.312035 -26.028242
-26.306999 -38.590469 -24.913795
-27.06546 -44.225685 -24.537704
-24.218765 -32.131001 -25.987141
-25.634691 -39.759995 -24.142471
-26.391285 -38.88195 -25.463724
-25.092529 -42.44471 -27.720543
-27.174105 -43.041004 -26.136574
-23.617012 -38.124226 -24.962803
-25.859293 -38.382469 -24.29006
-25.996716 -40.336769 -24.415728
-26.092236 -44.450001 -26.643585
-26.234642 -43.836578 -23.450279
-26.168324 -42.990864 -23.409092
-24.778753 -34.992104 -23.990709
-23.548368 -32.75375 -25.420786
-23.883852 -40.665623 -26.3179
-27.03635 -41.950195 -24.336023
-25.532526 -39.216679 -24.093744
-24.695639 -33.67062 -26.795294
-23.610096 -41.1427 -25.815016
-25.51664 -43.270924 -24.3661
-24.874998 -41.655998 -27.4793
-24.064159 -43.200642 -23.260162
-24.077477 -33.155804 -26.506859
-23.845734 -44.450005 -25.031805
-23.549229 -41.546131 -25.458811
-24.558016 -43.295429 -27.687071
-25.283146 -44.450001 -23.422531
-23.723322 -41.655998 -24.525791
-24.082586 -43.798416 -23.252146
-26.324169 -44.406208 -23.715605
-23.587193 -41.794064 -23.532951
-25.479076 -41.655998 -26.980244
-22.737005 -42.230698 -24.758701
-27.177404 -42.489464 -24.67314
-26.387753 -34.568161 -25.282827
-24.282143 -37.167744 -26.644466
-24.357389 -44.449997 -26.779964
-24.729589 -37.614613 -23.998238
-25.383686 -39.147617 -26.760761
-26.066689 -32.372971 -26.305859
-25.794529 -36.778191 -26.559086
-24.8871 -43.041115 -25.511652
-26.255035 -41.056683 -24.789856
-23.738708 -35.968506 -24.688461
-23.903578 -44.052105 -25.620113
-25.903046 -41.931152 -27.528095
-25.857742 -44.450005 -26.781385
-24.859043 -36.420403 -26.817816
-23.910599 -32.322247 -26.336514
-26.178053 -39.492233 -26.15102
-24.104467 -44.450001 -24.465708
-24.952677 -44.116497 -27.723719
-23.686172 -35.793648 -24.788792
-23.557413 -39.615585 -25.561317
-26.234751 -40.76889 -24.74877
-24.287584 -39.835365 -26.647457
-23.736198 -35.181725 -26.107014
-26.38768 -36.210609 -25.28174
-25.432192 -36.168224 -26.74497
-25.209095 -39.299034 -26.802057
-24.374685 -43.564396 -23.15366
-25.076382 -44.450005 -26.763409
-24.221508 -44.450001 -26.98381
-23.5499 -41.655998 -23.562817
-25.186604 -43.996979 -27.713791
-23.659075 -44.450001 -25.411369
-27.201141 -44.078381 -26.049885
-25.506538 -42.593094 -27.660885
-25.768213 -34.870766 -24.222809
-24.762627 -43.595398 -27.714729
-23.583851 -32.32436 -25.689775
-26.500256 -43.458298 -27.148788
-23.551151 -34.888046 -25.30928
-25.18055 -39.720776 -23.993565
-26.040184 -43.144325 -25.45059
-22.795359 -44.309643 -24.971485
-25.898624 -33.989899 -26.477318
-25.209499 -37.177597 -23.998005
-26.072577 -44.279438 -25.24147
-26.17004 -39.315033 -24.635767
-27.259373 -42.877201 -25.801826
-25.892128 -43.133213 -25.529669
-25.293461 -34.15556 -24.015045
-25.684494 -32.131001 -26.299139
-23.267721 -43.462978 -26.98152
-26.142441 -44.450001 -24.265106
-24.284342 -44.449997 -24.24651
-25.040802 -43.694038 -24.3661
-27.261183 -43.35778 -25.790058
-25.892885 -41.675079 -27.532574
-26.290451 -36.689037 -24.871052
-24.245064 -35.512993 -26.623274
-26.263103 -34.185818 -25.992914
-26.096581 -41.62888 -26.268661
-23.812027 -40.234379 -24.5748
-24.218334 -41.655998 -27.532925
-23.771919 -41.655998 -24.483976
-24.726301 -32.19138 -24.14003
-27.266384 -43.190819 -25.043793
-25.404819 -39.947151 -26.75428
-26.371914 -38.361645 -25.158251
-25.395109 -34.69244 -24.042559
-22.650444 -42.330856 -25.532248
-24.347027 -36.147007 -24.121807
-25.030624 -40.822289 -26.821039
-25.991611 -44.450001 -24.780603
-24.787565 -37.675331 -23.989483
-23.618141 -43.54248 -27.289747
-23.265223 -42.481705 -26.978909
-22.886896 -44.351158 -24.715919
-22.964432 -43.507713 -24.22665
-26.34598 -38.062035 -25.761213
-22.704292 -43.35041 -25.915226
-25.026405 -44.282848 -26.433901
-27.152668 -42.035061 -24.600908
-23.980181 -37.147255 -26.42078
-27.214706 -42.521393 -26.003197
-26.084717 -34.850357 -26.283422
-25.149502 -40.128967 -23.989082
-23.550812 -40.800278 -25.485449
-24.093676 -44.128296 -25.949383
-22.744278 -42.556396 -24.733746
-25.890629 -41.655998 -23.742794
-26.03768 -44.450001 -26.896919
