# .PCD v0.7 - Point Cloud Data file format
VERSION 0.7
FIELDS x y z
SIZE 4 4 4
TYPE F F F
COUNT 1 1 1
WIDTH 201
HEIGHT 1
VIEWPOINT 0 0 0 1 0 0 0
POINTS 201
DATA ascii
-27.748861 -18.284321 0.010743561
-25.264339 -14.228765 -1.559731
-27.66201 -17.486214 -0.68807882
-22.417622 -18.151278 -1.0964133
-23.395006 -15.630161 -0.19440833
-24.775555 -13.365219 -1.5752829
-25.729376 -16.256001 -2.4856286
-23.821791 -16.405163 2.5297656
-23.383209 -13.912092 -0.018980425
-24.049026 -14.308216 -1.2925079
-22.6507 -18.409805 1.5289241
-27.671 -18.263184 -0.65132469
-24.176138 -15.765 -1.3745399
-25.863642 -16.280231 2.6305494
-23.723997 -14.710892 0.98274863
-27.572489 -16.512014 -0.97358435
-26.367167 -15.707462 0.75363487
-25.143951 -14.998703 -1.5775967
-25.852745 -16.841423 -2.6342483
-22.769329 -18.758791 1.6959943
-22.71487 -17.215952 1.6221542
-26.089493 -17.679079 -2.5426962
-26.399883 -16.20005 -0.68961847
-27.556732 -18.290529 -1.0141472
-26.301186 -17.635103 -2.4385779
-25.179552 -12.979297 -1.5736042
-23.492954 -17.020151 -2.3530848
-26.397739 -16.256001 0.9061476
-23.112087 -17.417889 -2.0654485
-23.66991 -15.859871 -0.91056812
-26.511068 -14.978723 -0.38083339
-24.909296 -15.012907 1.5861688
-25.518631 -13.872471 -1.4896852
-25.538456 -13.919666 1.4819705
-26.322029 -12.930835 0.83180177
-24.492758 -16.256001 -1.5506935
-24.760944 -15.098575 -1.5735879
-23.622236 -15.966656 0.83784616
-24.144289 -18.410229 2.6529453
-26.552496 -13.641838 -0.12767534
-27.463188 -17.715696 -1.226109
-25.516369 -13.113804 1.490566
-22.427998 -17.376961 1.1200011
-26.138239 -17.171572 -2.5212517
-27.032965 -17.672478 1.8613887
-25.72752 -13.070871 -1.3948935
-24.442984 -17.533876 2.7276258
-22.307798 -18.741306 -0.79313672
-22.208057 -18.796661 0.29657671
-24.518568 -18.364647 -2.7412786
-25.178848 -13.209221 -1.5737129
-26.484514 -18.056591 -2.3294721
-27.232761 -17.109127 -1.6126993
-23.446642 -15.329124 -0.44426632
-25.736732 -14.698328 -1.3898373
-22.734276 -18.790855 -1.6486123
-22.345119 -17.810925 -0.90912688
-22.865957 -16.966675 -1.8138232
-27.092104 -16.256001 0.71927381
-27.166168 -17.602795 -1.702477
-25.983849 -14.634613 -1.2216702
-22.462233 -18.025963 1.1953101
-23.727354 -16.256001 1.4725314
-23.216251 -18.079557 -2.1543884
-24.277107 -17.140505 -2.6904402
-25.221464 -14.894627 -1.5671556
-25.428919 -14.92493 -1.5195038
-23.802071 -16.072014 1.0747659
-22.489185 -16.256001 -0.056012496
-24.888077 -13.173504 -1.5851362
-24.458607 -14.165024 -1.5023546
-23.680769 -15.07265 0.92536145
-23.39257 -16.862585 2.2869687
-27.737726 -17.505268 -0.24926023
-25.22851 -15.9958 -1.5660713
-25.001789 -17.492867 -2.778074
-26.476343 -16.733761 -2.3349321
-22.870876 -18.763168 1.8194318
-25.306524 -18.451014 -2.7578905
-25.351715 -15.286232 1.540621
-22.951189 -18.183779 -1.9082236
-22.848059 -16.256001 0.61885124
-22.193182 -16.660629 0.073703662
-24.238802 -16.256001 1.4088992
-23.515398 -13.667969 -0.63409662
-25.484278 -17.479118 -2.730299
-26.373684 -16.256001 2.0222092
-23.399364 -12.789374 0.22653887
-23.498699 -17.998821 2.3565717
-26.555017 -15.637223 -0.088923573
-22.321234 -17.915436 0.83864051
-26.396727 -13.540311 0.6960243
-23.528402 -14.437703 0.66363931
-26.040871 -16.256001 1.9898899
-26.588665 -18.373852 2.2582777
-23.411922 -15.465414 0.30075994
-24.360397 -18.07662 2.7108102
-26.313805 -16.256001 -1.3424116
-26.508961 -15.371066 0.38942665
-24.127211 -15.647152 -1.3448362
-23.834064 -14.765884 -1.1081831
-24.170948 -13.205378 -1.3713894
-26.531412 -14.105082 -0.28717875
-27.305368 -17.412197 -1.505806
-24.566423 -16.256001 2.1280034
-23.78541 -12.917458 -1.0559906
-25.051569 -15.382257 1.5852053
-24.568844 -14.165094 -1.5357201
-27.154181 -17.656078 -1.7174109
-24.439093 -18.183537 2.7268515
-26.44627 -13.550369 0.58366889
-25.360327 -14.75428 1.5385151
-26.232986 -16.256001 -2.2364843
-26.274837 -16.256001 2.0883143
-24.88463 -14.887782 -1.5849104
-22.373234 -16.369476 0.98669302
-26.10833 -18.069555 2.5344088
-23.978531 -16.95446 -2.5950937
-22.21018 -16.613459 0.3159641
-25.994015 -17.974892 2.5826724
-23.397333 -12.819227 0.21328509
-24.127731 -17.154831 2.6477842
-26.378962 -13.61775 -0.73208988
-23.383619 -14.050135 -0.037849661
-23.41848 -15.812506 -0.33350292
-23.792648 -14.570563 1.0642377
-24.427883 -15.756992 1.4919233
-23.841566 -14.117275 -1.1160196
-26.762442 -16.3479 -2.1234369
-27.511616 -16.256001 1.0018473
-22.945709 -16.256001 -0.85646075
-27.747036 -17.284824 0.092689432
-27.602945 -18.246843 0.88726431
-26.552843 -14.084513 0.1223423
-23.626558 -16.256001 1.8857647
-25.929747 -16.256001 -1.7402965
-23.845715 -19.035454 2.5402994
-27.226128 -16.256001 -1.2634559
-26.545862 -12.759056 0.19216579
-26.947708 -17.92696 1.951808
-26.881523 -16.256001 -0.45031989
-24.871233 -13.057158 1.5840318
-26.34198 -15.267781 0.79889786
-24.438856 -14.293091 -1.4956501
-27.638987 -17.544525 0.77210778
-27.746677 -18.974108 0.10886224
-25.781654 -14.1337 1.3641611
-23.638168 -14.896838 -0.86308634
-27.691494 -16.282057 -0.55981535
-26.281412 -16.256001 1.5378275
-24.052139 -16.256001 -2.4209516
-22.306511 -16.526245 -0.78873289
-22.224716 -17.320299 -0.42368457
-25.5289 -16.256001 2.4899845
-26.468008 -14.854962 0.52550256
-25.312305 -18.095301 2.757257
-27.277409 -17.389641 -1.5476857
-24.718704 -16.435513 2.7671607
-24.32213 -18.8985 -2.7014518
-23.838959 -16.536362 2.5373254
-27.247501 -18.93082 1.5924774
-27.07122 -16.256001 0.75272137
-22.427505 -17.150837 -1.1188872
-22.709929 -16.256001 -1.2166997
-23.994484 -15.541892 1.251891
-27.69458 -17.300228 -0.54433739
-24.584579 -17.121361 -2.7514451
-25.850609 -14.963993 1.3206353
-24.065804 -13.777842 1.3044112
-27.00071 -16.462126 1.8964155
-26.80727 -16.256001 1.1739694
-24.243988 -19.002066 -2.6820064
-24.211458 -16.256001 -2.1382425
-27.643028 -17.148781 -0.75823951
-23.535961 -13.102535 0.67975587
-22.225311 -18.421217 0.42754251
-25.371923 -13.819777 1.5356792
-26.812103 -16.358788 -2.0798652
-22.271658 -17.567554 0.65973407
-27.265072 -17.95853 1.5661595
-24.854412 -16.073292 1.5829293
-25.855671 -13.457598 -1.317255
-23.785414 -17.199928 2.5131929
-23.571342 -14.976086 0.74970013
-25.705397 -14.899694 -1.4070334
-25.851851 -18.116089 -2.6345522
-25.636581 -18.936169 2.6970332
-25.332119 -16.256001 -1.7880874
-27.407982 -16.513315 1.3325332
-24.750145 -16.567574 2.7696347
-26.480827 -14.047256 0.48763156
-25.788002 -18.684391 2.6553671
-26.505486 -14.64288 -0.40359733
-27.747793 -16.739296 -0.05868075
-25.512264 -14.18088 -1.4921117
-27.191889 -16.256001 1.5714897
-26.827419 -18.292246 -2.0664275
-25.972589 -16.996908 2.5910029
-22.528969 -16.256001 -0.4411329
-26.108696 -14.711992 1.1060306
-27.660261 -16.737455 -0.69522905
