# .PCD v0.7 - Point Cloud Data file format
VERSION 0.7
FIELDS x y z
SIZE 4 4 4
TYPE F F F
COUNT 1 1 1
WIDTH 485
HEIGHT 1
VIEWPOINT 0 0 0 1 0 0 0
POINTS 485
DATA ascii
16.443031 -14.524037 0.51899785
18.61932 -17.037672 0.72704917
10.796144 -12.873816 -2.4525959
17.364105 -15.621 -1.2894136
9.4387207 -16.904388 4.1680498
10.240683 -15.936333 -4.7559662
16.898262 -18.773567 -4.0642719
8.976512 -15.621 -3.3100102
13.31295 -15.379642 3.3663077
10.743748 -14.460443 -2.402437
18.646364 -16.214594 -0.47867364
16.159475 -14.737583 1.4428238
14.684319 -14.076139 2.9832544
14.615364 -15.621 -5.055234
12.827649 -16.152164 5.5482836
13.849801 -15.621 -4.0006342
12.907422 -15.621 -4.3700571
10.061236 -19.049908 4.6431503
15.079689 -16.075836 5.1945438
15.41851 -16.334713 5.0535297
15.013246 -18.068592 -5.2203755
16.235912 -15.621 1.3049151
7.7417998 -18.213455 1.4292744
17.382418 -15.621 -2.1245794
16.357687 -15.621 -2.2219687
17.791714 -15.977505 2.993279
9.8581514 -14.820117 0.89176136
12.701971 -17.488811 -5.5400486
13.325603 -15.621 -5.210392
18.476881 -15.896896 1.4412115
8.6038179 -18.352917 3.2474251
16.115717 -14.689087 -1.5315428
12.470661 -16.427906 -5.518034
15.779325 -15.621 -4.1484485
10.010884 -13.165476 1.3280244
8.4147329 -15.621 -2.4458563
8.075058 -15.621 -1.7431026
14.884126 -17.615618 -5.2643147
18.340298 -17.529465 -1.8759307
9.8208466 -13.072545 0.74289513
9.7378969 -13.471464 -0.006250944
7.6782084 -16.288536 -1.1617585
16.812767 -16.234129 4.1419678
18.665226 -17.367702 0.085768864
11.858722 -18.640297 -5.4124117
8.0045948 -18.4506 2.1876945
16.405489 -15.526372 0.72260958
16.381468 -15.276713 0.82237053
16.653234 -15.621 -3.0745449
14.767151 -15.621 -4.7087541
18.648218 -18.556549 -0.45032242
14.714943 -15.511495 -2.9664526
15.334236 -18.584665 5.0906124
12.469043 -13.323789 -3.3107166
8.6545572 -17.32744 -3.3166232
15.46714 -15.525555 2.4127879
9.4419823 -16.047874 4.1709094
16.242073 -14.745731 -1.2526364
16.102661 -15.621 1.9664588
7.5779848 -16.37228 -0.5044874
9.831522 -18.448292 -4.4836464
15.429827 -18.891708 5.0485501
14.73422 -17.101198 5.3129263
10.078752 -15.621001 -1.5497383
11.774012 -12.919123 -3.0961211
14.898233 -15.621 -2.9069071
9.8054905 -15.003329 -0.66864103
11.491935 -15.621 -4.9234967
7.8798404 -18.471142 1.8712749
9.2453518 -15.621 3.6453922
10.964911 -17.27314 -5.1246462
17.100334 -15.621 -1.6369646
16.78166 -15.621 -3.6452594
11.710901 -13.390879 -3.0683475
13.464527 -15.145624 3.3537507
18.558346 -17.050135 1.0872529
9.7701721 -14.850454 -0.46342206
11.636403 -14.339182 3.0329683
7.6342077 -17.147486 0.9334417
18.604694 -16.173059 0.8220259
8.8645325 -17.838047 -3.5828838
15.298478 -18.667246 5.1063461
17.788813 -18.747898 -2.997623
18.324158 -16.969669 1.9205308
9.5531597 -18.702091 4.2673821
15.359676 -15.621 -4.1888714
11.059203 -15.621 3.4128144
9.5479822 -18.564611 4.263227
7.7521162 -17.663456 1.4660767
11.292072 -18.381145 5.2488537
18.545387 -16.438372 -1.1523874
10.853055 -13.292319 -2.5053768
13.864647 -14.862868 3.2873714
17.373482 -15.621 -1.3164122
8.7896862 -17.559889 3.4906807
12.160387 -16.178391 5.4740543
14.091486 -15.621 -4.2059045
18.648315 -18.222265 -0.44881952
13.236625 -15.621 4.0614052
13.752082 -18.660488 5.5179205
15.720167 -14.234512 2.1366248
14.958685 -15.621 5.200901
16.061916 -13.551773 -1.6322236
12.48276 -16.045008 5.5193591
7.6275849 -18.559881 0.89041102
9.8537951 -14.891678 0.87682098
16.414326 -13.222076 -0.67831862
15.118308 -17.720444 -5.1795297
12.294085 -18.917011 5.4946337
11.323323 -14.490923 2.8599257
9.6779213 -17.021055 -4.3675146
13.213647 -13.588869 3.3708777
8.3437071 -16.033855 -2.8517637
8.9963408 -15.621 0.42439127
15.804834 -14.57527 2.029099
13.238647 -15.621 4.3102303
15.886396 -16.619154 4.8132787
18.361778 -16.405008 -1.8127131
9.8478661 -15.621 3.0889361
15.375766 -14.776274 2.4991462
13.046504 -18.500101 5.5548449
12.313295 -12.73317 3.2766356
13.579063 -17.737513 5.5361609
12.546403 -18.521542 5.5263286
14.408218 -15.987957 -5.4013596
11.916691 -18.390057 5.4262094
8.4434137 -16.2283 3.0132582
16.404108 -13.124788 -0.72953677
10.068591 -12.948517 1.4555287
16.475786 -15.621 -0.46283042
16.780741 -15.621 1.278469
13.785904 -18.256939 5.5142164
10.482332 -13.411418 -2.1126604
15.016424 -14.63901 2.7826047
15.941696 -13.514722 -1.8333533
15.989141 -13.983818 1.7573082
8.1015205 -15.921637 -2.4015281
10.479633 -15.621 -3.343524
17.157461 -16.257189 -3.8058951
14.278783 -14.022888 3.1641815
15.0925 -15.621001 -3.1586347
18.625689 -15.722347 -0.66965383
10.654877 -13.380579 2.3111265
12.639062 -17.859959 5.5359268
15.676853 -12.74192 2.1886728
17.460466 -15.621 1.652447
9.7815437 -13.165197 -0.53729415
14.99345 -13.168691 2.7979622
10.609362 -15.612255 2.2621689
9.7397947 -13.225811 -0.093242951
18.045 -18.380068 2.5540409
10.748038 -15.621 3.7959814
10.145492 -15.620999 -2.9176009
13.534831 -12.828464 3.3460522
12.821763 -15.529686 3.360599
14.421629 -15.620999 3.8661397
16.697153 -15.845386 4.2433887
10.45624 -13.407942 -2.0801473
16.940598 -15.621 0.88131624
10.31608 -15.621 -2.826416
17.442003 -18.375809 -3.4782641
9.3704033 -15.621 -2.4987245
16.584473 -15.621001 3.5350077
11.096191 -16.812113 5.176712
14.163677 -15.621 -3.7004976
16.690363 -17.355581 4.2493448
10.699271 -17.086582 -5.0043874
17.32584 -15.621 -1.4609025
17.045408 -15.621001 -1.4579754
14.191902 -18.854874 -5.4487267
7.7342038 -17.914433 1.3982314
12.165326 -13.377262 -3.2370293
13.743434 -16.967161 -5.518867
8.5817642 -15.621 -0.19546491
15.020382 -15.621 3.1727619
10.463047 -15.621 -4.3022971
18.06385 -18.532681 2.5158489
17.020796 -17.90242 -3.9469576
16.461275 -16.41555 -4.4315505
11.055236 -15.621 3.853282
7.9073124 -18.71405 -1.9456131
11.938351 -13.916652 -3.1623719
15.087152 -13.750767 -2.7326372
17.602177 -16.407349 -3.2688973
9.960412 -14.602327 1.2031322
18.443424 -17.430693 -1.5560597
9.5523109 -15.621 3.0405068
17.734617 -17.989464 -3.0787182
15.891036 -17.841904 -4.8106146
11.326709 -15.621 4.8297262
8.0131454 -16.739902 2.2071249
16.237663 -14.730792 -1.2639618
11.684613 -15.621 4.2074037
9.808774 -14.734018 0.68515337
8.2802429 -16.445837 2.7438946
8.4898415 -15.621 -1.6901367
14.83262 -15.621 5.2735424
14.253045 -16.255173 -5.4365654
11.580168 -15.621 -4.457221
16.91366 -15.621 1.1284873
8.5309973 -15.88067 -3.1443334
14.224016 -17.563791 -5.4423389
11.052789 -15.283017 -2.6722996
9.1620178 -15.621 -1.2545372
12.960478 -13.038413 -3.3696985
14.466318 -16.302299 -5.3871403
8.2558527 -17.490957 2.6994381
15.618432 -15.621 -3.526813
10.065856 -17.705362 -4.6462374
17.42927 -15.621 -2.1654491
9.466795 -15.621 2.4945071
12.919361 -12.728244 3.3670015
10.959299 -15.873087 5.1221771
11.81529 -13.551712 -3.1142874
9.8221731 -14.191004 -0.74831545
8.5279446 -16.690615 3.1397648
17.591345 -15.621 1.3681853
17.748344 -15.621 -1.0748484
11.315009 -13.576782 2.8548796
8.3392563 -17.581949 2.8444295
15.554402 -13.301039 -2.3241704
16.165298 -16.345795 4.6399293
7.7237234 -16.767822 -1.355402
9.8506384 -15.620999 2.393544
10.142596 -18.065018 -4.6964612
9.8759899 -15.621 -1.9569771
10.444449 -18.848286 -4.8731132
13.292619 -15.621 4.1886473
17.898678 -15.621 -1.0733308
10.389172 -15.15472 -1.9911816
8.7704468 -16.081089 3.4667072
8.1059752 -16.568111 2.410562
8.3405342 -18.703987 2.8465338
17.218739 -15.620999 0.34141478
11.260785 -14.006439 -2.8196671
15.336326 -15.621 3.106657
16.069561 -12.718319 1.6182919
17.121098 -16.096027 3.8438644
9.1897631 -15.621 3.8392172
14.955042 -15.621 -3.1647549
18.240889 -16.000347 2.1338084
11.599808 -15.621 -3.7483392
9.017313 -18.441835 -3.7568133
15.853753 -18.501926 4.8311911
15.873106 -15.621 4.6935897
7.8209939 -18.066631 -1.6979132
12.489225 -15.621 -4.1733208
13.024963 -14.567535 3.3712459
11.150271 -14.379978 2.744149
18.232311 -19.046076 2.1533134
16.78952 -18.024944 -4.1623611
11.527129 -17.556784 5.3244624
14.692484 -16.735147 5.325088
18.254967 -16.324974 -2.0985751
10.101678 -18.378899 4.6701722
16.161743 -15.621 -4.4617281
10.595703 -15.621 -4.4348173
12.938699 -15.621 -3.3860173
16.105925 -15.621 -1.7792213
14.646135 -14.391021 -3.0029688
18.665159 -17.301947 -0.08879935
16.203485 -15.621 -1.591795
12.527904 -13.942804 3.3223016
8.7844791 -16.623554 -3.4841928
16.467508 -13.787268 -0.32754245
14.279184 -18.883898 5.431366
12.593216 -13.711926 3.3323524
12.177256 -14.448471 -3.2405062
17.736286 -16.542416 3.0762205
14.728157 -15.621 3.1994629
18.287472 -17.338495 2.0149364
17.619072 -19.04439 3.245862
10.112625 -15.339289 1.5448086
7.5811682 -19.006527 0.5335499
17.545105 -18.329062 3.3467064
18.283421 -16.965197 -2.0253568
11.17468 -13.54977 2.7620578
12.34058 -17.161465 5.50179
14.260959 -14.246885 -3.1709354
13.157043 -17.611868 5.5552425
13.617487 -15.621 3.3975339
16.300344 -18.007956 4.5495439
14.146217 -17.228857 5.4578137
9.8158493 -15.621 -1.6889056
14.873004 -18.633282 -5.2680902
11.279217 -17.118889 5.2444901
15.24013 -15.362923 2.6152313
14.370327 -18.341688 -5.4106331
9.2151985 -15.621 0.79058027
18.57901 -17.879713 -0.98337919
10.452789 -15.621 3.8169243
7.6718287 -15.640564 1.1296848
15.53381 -15.840906 4.9988236
13.102134 -19.019325 -5.5560589
9.1300306 -15.621 1.1555088
8.1216507 -17.612141 -2.4423518
14.311795 -13.58007 3.1513381
7.6262269 -17.167404 -0.88158929
9.7389297 -14.259624 0.053619038
12.759693 -16.577633 -5.5438304
14.973483 -14.402081 -2.8113115
9.7844715 -14.022769 0.55631834
9.6375751 -15.703855 4.3351336
7.5864668 -16.682219 -0.58193445
9.7981033 -15.621 1.8028606
10.130227 -13.313143 -1.5781729
16.320307 -15.621 -3.882411
16.209076 -13.293797 1.3320751
18.663479 -18.784311 0.16564623
8.352541 -15.621 -2.5779443
9.1177425 -15.621 0.85505772
14.668976 -15.621 -5.2695422
11.590587 -15.621 -3.9657822
10.012579 -13.918319 -1.3318746
16.597599 -15.708773 4.3243766
7.564373 -18.335558 -0.31032196
17.79361 -17.400486 -2.9904437
9.7701988 -13.021075 0.4635931
11.26244 -12.735087 -2.8207729
11.74073 -13.169607 -3.0814743
14.134059 -15.169518 -3.2139938
18.22777 -18.699007 2.1636345
17.887276 -15.979235 2.8365264
9.7356453 -15.621 1.9259419
9.2715797 -15.621 2.3913636
16.876699 -17.979342 -4.0849147
14.546127 -12.940689 -3.052283
18.451084 -15.759764 1.5297732
13.838251 -13.604073 -3.2937064
15.822968 -13.712314 -2.0043604
9.2846203 -15.945701 -4.0270834
13.957588 -18.200825 -5.4900198
7.9487309 -15.621 -0.60456485
18.568342 -16.022717 1.037007
16.205904 -12.731647 1.3392971
11.066235 -13.896369 2.6824892
15.856999 -14.052094 -1.9579329
10.87887 -12.893599 -2.5280073
16.347319 -12.87479 0.94772565
17.690668 -18.2593 3.1444807
9.7478771 -13.95207 -0.25255468
9.0574722 -16.060425 3.7987616
18.627287 -16.769642 -0.6550709
11.074091 -17.014826 -5.1681161
10.149288 -13.733139 -1.61291
18.663368 -15.933741 -0.17072436
18.155626 -17.345724 -2.327652
7.621336 -16.142584 0.849814
8.9264822 -15.621 -3.2044258
14.66414 -15.102125 -2.9940903
17.925705 -18.844797 -2.7726502
11.350704 -14.739622 -2.8765435
10.176292 -18.048824 4.7169037
9.7413368 -12.718143 -0.15274183
7.6268616 -16.057142 -0.8857156
9.4685478 -16.742741 -4.1942062
14.596835 -13.527557 -3.0272789
14.92935 -15.621 4.7644496
15.835117 -14.235285 -1.9877855
17.615322 -16.035982 -3.2509735
18.550884 -18.699417 -1.1247537
15.156189 -15.621 3.550297
17.508598 -18.690462 -3.3952682
15.555603 -15.621 2.6851015
9.7419481 -13.435981 0.16206864
10.498656 -18.906422 -4.9028563
12.863132 -15.621 4.7107182
12.959631 -15.621 -5.1664705
17.728662 -18.528816 -3.0876284
12.845667 -17.663441 -5.5494637
9.8874359 -17.845306 -4.5246449
9.6671219 -18.533276 -4.3588481
9.1595879 -15.621 1.5395193
17.027149 -18.17284 3.9408748
15.421185 -14.094885 2.4567795
13.277324 -13.006028 3.368643
10.176723 -17.688705 -4.717165
8.1882877 -16.10895 -2.5762861
14.538286 -12.900738 -3.0561497
9.7558365 -15.691315 4.4281507
17.33548 -16.604748 3.6076701
7.5561576 -18.297792 -0.070000052
8.0684547 -17.577194 -2.3328195
12.277889 -14.768839 3.2679687
12.836921 -12.713923 3.3615935
10.068415 -15.621 -4.5086017
14.088949 -15.621 5.4195719
13.282085 -15.621 -4.8620644
16.537573 -15.621 -4.0400972
9.5864573 -15.621 -3.2303371
9.7540293 -13.156788 -0.3253856
10.579746 -15.621 -2.5749531
12.072176 -14.323478 -3.2087126
10.392567 -13.605211 1.9958136
16.080858 -14.459469 -1.5976987
15.176204 -15.621 3.4573283
12.058845 -13.901926 3.2041893
15.508979 -15.621 4.9644804
9.7427874 -13.285568 -0.17487866
12.095115 -15.594766 -3.2164965
12.137797 -15.621 -4.5921478
13.613983 -15.621 -4.8542814
16.56152 -15.621 1.5535148
9.4973555 -15.621 0.27682951
16.300121 -15.621 -2.3923974
18.654131 -17.715954 -0.35979268
7.5972023 -16.576542 0.67996818
8.9745874 -18.767786 -3.7083757
16.191906 -13.642014 -1.3711447
13.4249 -13.447475 -3.3580899
14.657283 -15.621 3.7573714
17.825153 -16.399628 -2.9389534
9.3806658 -18.628208 4.1171389
11.345401 -15.621 4.9662333
11.791028 -15.792128 5.3958521
9.7599115 -15.335386 0.37910745
18.027905 -16.985697 2.5863597
13.749714 -15.621 -4.0455117
13.554529 -15.621 4.7500467
17.84514 -18.99905 2.9059989
15.690317 -18.05271 4.920877
7.6923766 -15.95618 1.2272991
7.7054415 -15.647028 1.280691
11.36375 -12.727407 2.8844609
11.13077 -16.018766 5.1901603
18.30954 -18.00391 -1.9581482
10.826352 -14.640947 -2.481514
13.462255 -14.246244 3.3539996
10.195387 -15.621 2.0545471
9.8463707 -18.444981 4.494534
13.948223 -13.22106 3.2669129
9.1477814 -16.220619 3.8930957
15.644245 -18.884281 -4.9443579
13.717683 -15.621 4.4452991
14.955792 -14.793022 -2.823138
17.695782 -17.917971 3.1368289
18.534346 -16.994455 1.2068983
15.621369 -15.621 -4.7536178
13.752293 -13.433642 3.310797
11.502547 -13.611088 2.9641433
10.535993 -19.025763 4.9233427
10.57401 -15.670506 -4.9426098
12.217196 -15.621 4.8073168
16.746944 -17.957458 4.1997094
12.339579 -17.694504 -5.5016365
9.232152 -15.621 0.094176993
12.091922 -15.621 -4.4670072
13.87677 -15.621 4.9691715
16.75317 -17.017723 -4.1942492
8.6928835 -15.659338 3.3688927
8.1313343 -17.390068 2.4619894
14.160047 -17.067194 5.4550629
7.9876599 -15.898889 -2.1492095
18.614822 -17.985203 0.75625265
16.482128 -15.615495 -0.086079024
16.210518 -15.621 4.2529497
9.7442017 -13.896236 -0.19646409
10.51467 -13.185203 2.1529596
9.5313015 -17.036364 -4.2492371
9.5338593 -15.621 2.1482129
11.194134 -15.621 4.7803741
11.271509 -18.739058 -5.2418747
12.386133 -15.621 -4.4744968
18.021702 -16.592007 2.5976658
15.493498 -15.737821 5.0187044
10.085993 -18.629601 4.6596923
17.924938 -15.621 1.8226886
16.009577 -12.715374 -1.7236542
13.299881 -18.250046 5.552124
10.196243 -17.457952 -4.7290068
18.240608 -16.35116 2.1344457
12.005713 -12.849207 3.1861606
7.8734398 -15.770147 1.8524182
7.6331882 -17.263762 0.92681473
13.199578 -15.621 4.2795582
9.9621983 -14.288617 1.207727
11.225913 -18.263201 -5.2264009
12.859005 -12.767138 -3.3630419
18.456661 -18.369129 -1.5106239
9.2348137 -15.621 3.950902
9.4011955 -17.040298 -4.1351428
8.9512472 -19.047186 3.6817622
16.969337 -15.621 2.1121049
12.529585 -15.039892 -3.3225603
9.8578453 -18.562258 4.5029469
