# .PCD v0.7 - Point Cloud Data file format
VERSION 0.7
FIELDS x y z
SIZE 4 4 4
TYPE F F F
COUNT 1 1 1
WIDTH 175
HEIGHT 1
VIEWPOINT 0 0 0 1 0 0 0
POINTS 175
DATA ascii
-9.3994198 -13.519309 -1.4776804
-8.8896542 -13.309986 0.51099306
-13.131582 -17.490833 -0.64648408
-11.078067 -18.112915 2.1989307
-11.840136 -13.361624 -2.0444889
-11.440655 -18.446022 -2.1606836
-8.8331738 -14.961285 -0.1278843
-10.85424 -18.771212 2.1927471
-10.451037 -15.188175 2.1225457
-12.697367 -16.401661 1.4334369
-11.687471 -18.800838 -2.0990632
-9.0503426 -14.542963 -0.96065134
-13.022849 -16.763721 0.92986339
-11.312796 -17.15443 2.1815419
-9.2127666 -17.053766 1.2407914
-12.935483 -17.946964 -1.097664
-12.974254 -13.142212 -1.0270444
-13.10092 -13.723532 0.73885405
-13.225321 -18.368988 0.11997293
-10.91232 -16.544529 -2.1965544
-9.7554312 -18.275257 -1.793561
-9.8807297 -15.56307 -1.8759723
-12.991152 -14.050863 -0.99407047
-11.802386 -15.002281 -2.0591624
-13.221846 -16.724422 0.17281945
-9.6688938 -18.325703 -1.7286735
-8.9031334 -15.562778 0.56606495
-10.941474 -18.582417 -2.1980946
-10.290064 -16.45322 -2.0719247
-11.08637 -18.989063 -2.1987498
-10.504082 -17.494637 -2.1359265
-9.7038965 -14.369067 -1.7557806
-10.721087 -17.402275 2.17799
-11.101503 -17.076334 2.19842
-11.429232 -13.940267 2.1629548
-9.5555296 -17.978506 1.6332709
-10.891447 -15.580358 2.1951861
-12.606339 -17.767258 1.5329324
-10.720259 -17.141691 2.1778624
-8.8646812 -16.333639 -0.39344975
-11.101471 -16.268644 -2.1984208
-11.626238 -16.745081 -2.1169214
-9.6501312 -13.983958 -1.7136164
-10.324609 -18.053104 2.0836527
-10.766546 -14.147923 -2.1838906
-11.613848 -16.543236 2.1205349
-8.8851118 -18.112595 -0.49243417
-10.876566 -13.137825 2.1942105
-8.9362011 -14.774433 0.6774351
-13.227528 -14.391558 -0.067274943
-9.0361767 -15.894136 0.93192279
-10.995338 -17.750736 -2.1992671
-9.7408533 -15.30671 1.7828733
-9.3958044 -13.585485 -1.473557
-12.055923 -15.322111 1.945322
-12.080575 -15.601086 -1.9318073
-10.487875 -15.522125 -2.1319599
-13.091649 -18.119392 -0.76439971
-11.066772 -18.29912 -2.1991768
-12.952656 -16.659761 1.0663843
-13.009478 -16.359028 0.956949
-8.9843178 -16.619368 0.8107053
-10.058034 -12.912062 1.9735789
-9.2240477 -18.565639 1.2576758
-8.9532585 -13.651722 0.72768945
-10.549551 -13.603909 -2.1470549
-10.926125 -14.78959 2.197459
-9.0260668 -16.078604 0.90920776
-9.1881914 -18.77317 -1.2040052
-11.580597 -16.322449 -2.1293974
-8.9762211 -16.057642 -0.78988743
-9.5321426 -18.399393 1.611913
-13.174477 -17.403877 -0.48566896
-11.980352 -13.00651 1.9832019
-11.588985 -14.0304 -2.1273441
-10.63774 -18.352558 2.1647387
-9.3565378 -18.526314 -1.4287807
-8.9749298 -13.200785 -0.7865631
-11.853603 -15.400717 -2.0392535
-13.069762 -12.952213 0.82066184
-11.140058 -14.976998 -2.1969163
-11.748064 -16.644224 -2.0786374
-9.7984228 -14.893662 -1.8230462
-9.0567179 -15.127108 0.97357982
-13.1607 -16.735699 -0.54200375
-11.343919 -17.886372 -2.1769001
-8.8723736 -13.208576 -0.4321332
-13.096542 -14.450129 0.75173503
-11.645531 -18.935776 -2.111295
-9.1058426 -13.065933 -1.0673974
-12.817089 -14.828777 -1.280998
-11.483089 -16.294003 2.152246
-11.925188 -17.479994 2.0086322
-11.517057 -14.341568 2.1449482
-8.8307362 -15.881267 0.080177441
-9.0696201 -17.260765 -0.9997471
-11.875378 -12.998627 2.0305593
-10.074616 -15.992662 -1.9817568
-9.2617178 -16.544403 1.309423
-11.765296 -15.246527 -2.0727875
-12.999952 -17.907797 -0.9762426
-9.0589237 -16.001244 0.97805476
-10.360605 -19.012417 -2.0958731
-11.845724 -16.058258 2.0423164
-12.508821 -15.555635 -1.6276895
-13.087873 -12.946342 0.77410793
-11.365274 -13.307588 2.1736147
-9.4191866 -13.927696 -1.4990518
-9.2533712 -14.072777 -1.2980393
-11.623714 -14.550225 2.1176577
-9.667613 -14.051241 1.7276466
-11.257809 -15.36412 -2.1875653
-13.166542 -17.810522 -0.51811749
-9.1289234 -16.165451 1.1085589
-12.347133 -13.666395 -1.7609003
-8.8667574 -15.973991 -0.40389147
-11.240509 -18.770512 -2.18946
-11.679012 -13.334679 -2.1015303
-10.378233 -17.446951 2.1013362
-13.049017 -18.362705 -0.87031549
-9.1117115 -15.888495 -1.0780962
-8.8319435 -18.981417 0.10913615
-12.804499 -15.967465 -1.2981883
-12.43292 -15.881027 -1.6934792
-9.0815487 -17.076853 -1.0231193
-9.6005545 -15.737803 1.6727617
-10.819547 -15.548779 2.1896961
-9.0221634 -18.703539 0.90033782
-12.50528 -13.426279 1.6307945
-11.601556 -18.289734 2.1241198
-12.156601 -15.168714 1.8884969
-9.1908627 -16.75913 1.2080041
-12.649026 -16.565317 1.488361
-13.059326 -15.49826 -0.84684968
-12.827347 -14.842972 -1.266995
-10.295638 -18.241287 -2.0738175
-9.8776417 -18.538548 -1.8740979
-9.9010906 -12.700087 -1.8883282
-9.9119987 -16.303555 1.8949482
-10.536058 -18.310137 -2.1437526
-9.0609608 -17.740757 0.98218572
-10.482422 -18.652672 2.1306255
-12.392308 -13.445312 -1.7260984
-13.152586 -19.004404 0.57426482
-10.372578 -13.497057 2.0996883
-11.117354 -16.991743 -2.1980743
-11.427032 -14.851177 -2.1633925
-11.174904 -18.874731 2.1946321
-12.649429 -15.807187 1.4879396
-13.056093 -18.036957 -0.85420942
-12.719332 -18.934366 1.407864
-13.209908 -16.818672 0.2890721
-10.518291 -17.002241 -2.1394043
-9.1382504 -17.502029 -1.1239274
-10.959345 -14.988121 -2.1984837
-8.9149399 -14.141628 -0.60710669
-11.790858 -16.002079 2.0636435
-12.62767 -18.443838 -1.5106589
-10.051722 -18.619019 1.9704664
-13.222647 -17.374687 0.16062373
-11.980047 -16.732534 1.9833527
-9.9705858 -14.399694 1.9280881
-12.955431 -16.198479 -1.0613292
-12.683428 -14.805968 -1.4493282
-8.9790878 -14.352272 0.79725975
-11.426407 -18.169806 -2.1635165
-9.246069 -14.351323 -1.2880813
-12.501415 -14.096718 -1.6341811
-13.154015 -17.464588 -0.56934303
-13.069616 -13.795182 0.82103837
-9.3729382 -17.388834 1.4474821
-13.210575 -13.577656 -0.28372434
-12.504912 -16.1952 -1.6311157
-12.547352 -16.94264 1.5913086
-11.830069 -18.842951 -2.0484014
