# .PCD v0.7 - Point Cloud Data file format
VERSION 0.7
FIELDS x y z
SIZE 4 4 4
TYPE F F F
COUNT 1 1 1
WIDTH 203
HEIGHT 1
VIEWPOINT 0 0 0 1 0 0 0
POINTS 203
DATA ascii
-38.240124 -15.594376 -1.2021931
-40.710072 -13.723089 -1.5131776
-42.009983 -18.288073 -2.0119967
-41.957832 -17.510509 0.22516923
-37.902538 -14.742983 0.61814564
-40.548946 -13.366714 -1.6141882
-43.08807 -18.637608 0.30856684
-40.438122 -15.783224 1.6715319
-36.554688 -18.574814 -1.3973564
-37.830124 -13.619488 0.35211861
-42.756302 -18.710058 1.6655616
-38.00988 -15.191172 0.86331463
-38.427616 -18.190872 -2.7484651
-40.495193 -18.020105 -2.7051647
-38.779068 -17.312981 -1.9393165
-38.218864 -14.033257 -1.1769018
-37.352062 -17.725765 1.0891705
-41.584991 -17.984943 -2.019042
-41.259007 -13.012466 0.90497303
-38.322838 -16.414234 -1.2926183
-37.807159 -15.352646 0.20010653
-37.714554 -18.966434 -3.2562091
-41.1213 -17.603579 1.9140046
-37.821377 -16.1696 -0.3042284
-38.046829 -14.006377 0.93015522
-41.416023 -14.342973 0.53668195
-37.977959 -19.043644 -3.4849725
-38.078663 -17.08086 1.0580215
-42.504967 -18.786301 2.1966112
-38.42643 -17.65115 -2.1414225
-37.993443 -17.849789 2.0891495
-41.410797 -12.777091 0.55460858
-40.282803 -12.794155 -1.7367988
-39.572159 -14.988729 1.8483918
-37.73806 -17.560434 -1.4108831
-38.916649 -14.961284 -1.6998316
-41.280632 -17.030632 -0.86564559
-41.457565 -14.648843 0.37251732
-40.615929 -16.209152 -1.5748193
-41.483025 -17.874563 1.9631008
-39.728653 -17.311562 2.1214497
-40.685696 -16.0741 -1.5296669
-36.57798 -18.719469 1.7626019
-37.801952 -15.822577 -0.14655657
-37.243305 -17.904366 1.2725028
-38.526001 -14.955297 -1.4723206
-41.480484 -15.259289 0.23794711
-39.918072 -15.751829 -1.8294444
-41.410606 -16.757082 0.55526596
-41.932484 -18.62685 2.5760765
-41.19873 -14.754284 -1.0051706
-42.557198 -18.155226 0.59026754
-36.675602 -18.752531 1.9817903
-40.372063 -15.477334 1.7011805
-38.844658 -18.727886 3.4545548
-42.468193 -18.008974 -0.088130958
-39.860901 -14.312492 -1.8370707
-40.998634 -13.254714 1.2615943
-40.379234 -18.857975 3.6028681
-42.945877 -18.7314 -1.3076575
-40.972725 -19.049999 -3.635993
-36.907246 -17.924335 -0.023438815
-38.151779 -16.266754 1.0901563
-39.345764 -17.24304 -2.0318847
-39.223293 -16.254906 1.8007149
-39.028519 -16.147032 1.743633
-39.297546 -12.877851 -1.816507
-39.501816 -13.931133 1.8440826
-40.849159 -12.947999 -1.4047633
-38.02916 -14.048992 0.89848006
-41.594303 -18.187471 2.2854075
-40.402603 -14.543719 -1.6877241
-39.663338 -16.783979 -1.8496196
-38.737091 -18.072472 -2.7406843
-38.652199 -17.900276 2.5259142
-41.093941 -18.144846 2.5818825
-39.203556 -14.086987 -1.7958829
-40.677494 -12.930548 1.5351466
-39.116982 -14.544357 -1.7723584
-40.628407 -17.97818 2.6142726
-37.937302 -15.784304 0.70933586
-42.099144 -17.816637 0.94870305
-37.797234 -16.070435 0.059819363
-40.97464 -17.121923 -1.4027698
-40.0826 -14.527448 -1.7972653
-37.985268 -15.08044 0.8144244
-41.310268 -17.39156 1.4435705
-38.719406 -16.121376 -1.6012404
-39.885666 -18.359217 -3.1666172
-41.179104 -15.259631 1.0345038
-37.978149 -16.958757 0.79999757
-37.820103 -14.911815 0.29597044
-39.900143 -18.182575 -2.9877825
-41.47543 -16.391481 0.27176434
-36.836414 -18.590933 1.9301779
-38.135555 -18.113327 -2.5089135
-38.429722 -17.440599 1.8963327
-42.817078 -18.356277 0.097941995
-41.477856 -15.88478 0.25603372
-39.517406 -17.573551 -2.3827143
-40.896683 -18.970297 -3.5773766
-40.114212 -13.787773 -1.7895268
-37.828999 -15.394225 0.34646297
-41.461281 -15.277364 -0.35392243
-41.399826 -18.625858 2.9635477
-39.323154 -13.825118 1.8216028
-43.42263 -19.010338 0.63799
-37.920128 -14.970147 0.6652739
-41.405609 -18.789635 3.1499348
-37.835987 -15.544895 0.38169754
-39.840866 -13.951702 -1.839264
-41.090855 -18.157932 2.5985765
-38.047813 -17.082556 1.0147486
-41.079552 -16.719177 -1.1686518
-38.010067 -14.29361 0.86365658
-38.030136 -16.216927 0.90025735
-40.40744 -15.546021 1.685595
-42.621582 -18.771721 -2.0084505
-40.846264 -18.1409 -2.7014885
-37.540096 -18.061779 1.9601781
-40.935326 -13.014196 -1.3260273
-40.024929 -14.38559 1.8103967
-37.102043 -17.804358 0.61861521
-41.459656 -19.027985 -3.3934629
-41.566994 -18.247845 -2.386445
-40.754292 -13.264204 -1.480757
-40.59288 -14.793325 1.5888114
-42.355171 -17.977295 0.67346132
-39.32251 -18.046738 -2.8432093
-41.298939 -16.057735 -0.82982564
-40.306107 -17.119474 1.8137443
-42.731422 -18.999542 2.2503347
-40.445267 -17.845428 -2.5368834
-42.51001 -19.033936 2.5785761
-37.277664 -18.202002 1.8702258
-41.310516 -14.866779 0.80635226
-41.165218 -15.537614 1.0552658
-36.876568 -18.321793 -1.4760957
-37.102074 -18.770065 2.5318327
-36.849876 -19.048336 2.6727581
-41.27182 -15.17802 0.8816632
-37.348179 -18.58214 2.5065141
-40.235016 -14.312299 1.753234
-42.66275 -18.932854 2.2306523
-39.491695 -18.852222 -3.6684382
-41.114536 -16.057503 1.1249399
-39.382736 -17.318216 -2.1133454
-41.480209 -16.033443 -0.24047565
-36.240719 -18.875908 1.435056
-40.585075 -13.525391 -1.5935445
-41.412109 -15.70594 0.55010957
-39.03952 -18.919464 3.6891894
-38.203487 -17.127575 1.2943538
-36.027748 -19.047127 1.3648405
-40.858658 -18.016497 2.5585916
-38.320869 -15.609105 -1.2905648
-36.07399 -18.896381 1.0224388
-41.164078 -15.443948 1.0569667
-37.984688 -17.993641 2.2641013
-37.87114 -16.141396 -0.52078974
-40.515923 -18.85066 3.5647254
-41.398323 -13.882232 0.59151691
-39.445271 -18.518147 3.3292341
-38.710724 -16.923946 -1.5959713
-40.589111 -16.942911 -1.5910964
-38.350231 -15.632542 1.3201447
-39.995789 -14.947923 -1.8161885
-37.534164 -18.735039 2.8576026
-40.3927 -15.541083 1.6920886
-41.071697 -16.87512 -1.1784395
-38.180729 -13.006706 -1.1293641
-37.610867 -17.230772 -0.16695838
-40.752579 -17.277159 1.7710092
-39.086536 -13.331822 1.7633402
-39.294758 -18.809057 -3.6107955
-40.521774 -15.205734 -1.6290853
-40.357151 -15.753751 1.7077477
-38.569687 -13.744474 1.5043507
-41.168404 -14.714416 1.0505011
-39.288574 -13.567797 1.8147211
-41.296677 -17.326042 1.3578191
-37.213356 -18.21233 -1.8031394
-40.307114 -14.550545 1.7273543
-42.350719 -18.19413 1.3198535
-41.770046 -17.825642 -1.5665703
-40.96714 -18.189081 -2.6984558
-37.018291 -17.815664 0.10535232
-40.118008 -18.807501 -3.5959651
-41.075253 -15.563091 -1.1740121
-41.633556 -18.334377 2.4445148
-38.324509 -17.16511 1.4688703
-40.832588 -17.507118 1.9927636
-41.173935 -18.932934 -3.426841
-41.324387 -16.183065 -0.77779394
-37.807304 -15.483948 0.2014153
-39.223682 -18.223818 3.0102623
-39.800339 -14.909929 -1.8434033
-40.343147 -16.987436 -1.7133582
-36.304241 -18.55241 -0.43980458
-40.380032 -18.751577 3.4936986
-40.360889 -13.193155 1.7061012
-42.319946 -19.00309 2.7318316
-38.621357 -16.178135 -1.5398587
