# .PCD v0.7 - Point Cloud Data file format
VERSION 0.7
FIELDS x y z
SIZE 4 4 4
TYPE F F F
COUNT 1 1 1
WIDTH 187
HEIGHT 1
VIEWPOINT 0 0 0 1 0 0 0
POINTS 187
DATA ascii
-13.01627 -20.953859 22.208296
-9.8774586 -21.975 27.823652
-11.453656 -21.975 27.641695
-13.00203 -20.408646 28.616386
-14.604351 -21.08963 24.958981
-9.144125 -21.975 23.611362
-14.270376 -21.505867 24.380518
-13.806154 -21.108355 27.22356
-12.625126 -21.975 23.174448
-9.8739691 -21.975 26.558331
-10.928715 -21.975 27.924191
-13.998381 -21.746132 23.909399
-9.3833904 -21.975 23.066866
-11.989921 -21.975 25.962177
-10.105435 -21.975 23.88472
-14.503624 -20.049252 26.01552
-14.243983 -20.974663 26.465216
-10.112819 -21.974998 24.980127
-11.67493 -20.193995 28.7169
-13.057788 -21.292625 28.519802
-7.8127089 -20.208508 26.462982
-14.284582 -21.331982 26.394897
-14.116617 -19.645103 26.685852
-10.24058 -21.975 27.16971
-7.2900524 -20.776213 25.557741
-11.926071 -20.116739 22.083099
-9.3790369 -21.975 27.359379
-10.402932 -21.975 27.681688
-12.02892 -19.623535 28.7169
-10.512389 -19.721617 28.716898
-8.1572304 -20.789377 27.059704
-7.4799261 -20.065727 25.886585
-11.864693 -21.975002 25.474609
-7.9288101 -21.761696 26.664087
-12.735753 -21.975 25.343918
-12.979793 -19.794521 28.654896
-10.715356 -21.975 25.815706
-13.077696 -21.975 25.861586
-10.968906 -21.975 24.862322
-11.843323 -21.975 23.649281
-9.1990967 -20.917303 22.083099
-14.442184 -21.256315 26.121986
-13.593574 -21.96043 23.339182
-7.3216715 -20.701485 25.612503
-7.900794 -19.986725 26.615559
-12.519553 -21.975 27.451
-8.8294773 -20.934202 28.224083
-10.813793 -19.714775 28.7169
-12.871767 -21.975 27.030331
-13.245582 -20.225166 22.605473
-9.3966351 -21.975 27.467117
-13.132643 -21.317738 28.390095
-10.335917 -21.275787 28.7169
-10.99938 -19.538666 28.7169
-14.120113 -20.24337 24.120216
-12.257293 -21.975002 22.684906
-11.252823 -20.929066 22.083099
-14.565264 -20.622688 24.891237
-12.179761 -20.432989 28.7169
-10.260639 -20.944817 22.083099
-8.59307 -20.940994 22.985357
-10.465715 -20.668869 22.083099
-12.135662 -19.839643 28.7169
-14.65208 -20.144667 25.041611
-13.557309 -21.975 27.272392
-13.935168 -20.219942 27.000118
-7.4263973 -19.919941 25.793873
-14.024282 -20.614626 26.845758
-11.427984 -21.975 25.273758
-7.8241301 -21.757521 24.317255
-13.431269 -19.951529 22.92709
-11.556475 -19.887032 28.7169
-12.194508 -21.845684 22.111374
-10.215322 -21.646763 22.083099
-8.7202435 -21.053959 22.765076
-11.96864 -21.909582 22.155272
-13.297811 -19.769112 28.104073
-12.963142 -21.975 26.588615
-10.09201 -21.975 25.444866
-13.01917 -21.975 23.165808
-11.12455 -19.890785 22.083099
-7.9147253 -19.921715 24.160313
-14.479785 -21.418505 26.05682
-9.559001 -21.975 27.706692
-10.068258 -21.975 27.506413
-9.056653 -21.974998 27.639256
-11.945592 -21.975 26.800066
-10.933455 -20.816811 28.7169
-11.109488 -21.975002 22.248404
-13.976952 -19.974081 26.927755
-9.716012 -20.606617 28.7169
-11.758053 -21.975 24.529861
-13.035376 -21.974998 23.931828
-12.570488 -19.603397 22.083099
-8.8243055 -21.975002 23.905109
-10.76438 -21.975 25.963531
-9.5239563 -21.909208 28.425072
-9.3990526 -20.092695 28.7169
-8.3326273 -21.975 24.316452
-7.2738457 -19.65485 25.270348
-9.5005426 -21.975 25.483479
-10.056149 -21.975 25.041155
-11.608032 -21.974998 25.164675
-12.017042 -21.975 23.328247
-11.040161 -21.975 27.171791
-10.097532 -21.975 23.637424
-9.1952009 -21.814203 28.431749
-8.9078779 -21.975 24.584661
-14.202364 -20.155611 24.262676
-8.1087227 -21.854053 26.975666
-11.205415 -21.975002 23.14259
-8.8311749 -21.910303 27.963993
-14.53903 -21.191271 25.954176
-14.388678 -21.216621 24.585428
-7.9564691 -21.868948 24.088001
-10.943658 -20.561203 22.083099
-10.560867 -20.742775 22.083099
-10.193778 -21.975002 25.265724
-9.8047934 -21.975 24.140135
-8.8984175 -21.140995 28.343513
-13.223712 -21.974998 27.284418
-8.0698128 -20.530525 26.908298
-12.976085 -19.875347 28.661314
-8.0133057 -19.634876 23.989559
-10.028601 -21.975 27.291595
-10.968011 -21.975 28.572794
-14.182565 -21.940472 24.347424
-13.599244 -20.094177 23.218035
-9.8046637 -20.933746 28.7169
-8.7108946 -21.705839 28.018671
-9.459137 -20.90774 22.083099
-8.6196012 -21.865215 22.939442
-9.9033937 -21.975 28.083538
-7.4703641 -20.388718 25.870041
-13.771879 -21.688293 27.282959
-13.566931 -20.980783 23.162086
-10.641933 -21.975 28.612198
-8.1702547 -20.605515 27.082268
-9.4222059 -21.974998 22.896431
-11.482737 -21.815435 28.7169
-13.635331 -21.783663 23.280643
-13.982939 -21.975 24.883577
-13.326603 -21.899076 27.902031
-8.4246998 -21.975 24.659454
-9.7570133 -21.975 25.145288
-11.978781 -21.870159 28.712872
-11.054945 -21.138752 28.7169
-14.168396 -21.975 25.099886
-11.056825 -21.975 27.840176
-11.315646 -21.975002 22.292755
-7.4155312 -20.619167 25.775051
-14.08908 -21.975 25.593054
-11.967133 -21.975 28.285391
-12.126966 -21.906958 22.200552
-12.376772 -20.884968 28.7169
-8.0673523 -21.419672 23.895983
-11.165524 -19.939703 22.083099
-12.61986 -19.76396 22.083099
-8.1096144 -21.974998 24.911806
-9.2963085 -21.009199 22.083099
-10.348879 -21.297081 22.083101
-9.2253866 -19.473412 22.083099
-9.0631714 -20.427135 22.17112
-9.4678183 -21.370214 28.7169
-9.7776346 -21.974998 23.050549
-14.599166 -21.635567 25.84996
-11.7253 -21.975 25.607512
-14.182666 -21.023251 26.571419
-12.829226 -21.975 25.084984
-14.066909 -20.458212 26.771933
-12.673651 -21.975 26.917629
-9.6509027 -19.574253 22.083099
-13.320587 -21.083282 28.064594
-12.15975 -21.905155 28.59166
-11.271848 -21.975 22.849438
-11.898528 -21.975 26.507359
-9.4403992 -21.975 26.490017
-14.424459 -19.966881 24.647358
-13.971454 -21.337996 26.937248
-13.494425 -19.717796 27.763527
-14.337935 -20.700743 26.302488
-13.824017 -21.083183 27.192625
-14.401294 -21.205395 24.607264
-12.724282 -21.975 26.290855
-11.598695 -21.039055 28.7169
-10.221485 -21.975 28.193104
-13.520149 -21.975 26.370106
