# .PCD v0.7 - Point Cloud Data file format
VERSION 0.7
FIELDS x y z
SIZE 4 4 4
TYPE F F F
COUNT 1 1 1
WIDTH 253
HEIGHT 1
VIEWPOINT 0 0 0 1 0 0 0
POINTS 253
DATA ascii
-10.219281 -19.049999 23.386078
-11.774377 -19.049999 27.993774
-12.173615 -19.271988 28.107607
-9.4624271 -19.450001 28.617363
-11.514885 -21.65926 28.7169
-14.425207 -20.881966 26.151335
-7.596714 -20.466469 26.088863
-7.2500329 -19.84129 25.311592
-8.6396437 -19.088139 23.687824
-12.688831 -20.552689 28.7169
-8.4970446 -19.049999 25.096653
-8.4477158 -20.145884 27.562855
-9.418294 -21.975 24.352573
-9.3296051 -21.975 25.301735
-13.922781 -19.049999 25.350271
-12.332451 -20.890003 28.7169
-8.8463602 -19.584726 22.546652
-8.0780983 -21.378386 23.877371
-14.818527 -21.397305 25.470108
-10.100559 -21.32391 22.083099
-12.611969 -21.975 23.609787
-10.373234 -21.975 24.042332
-10.612636 -19.450001 28.50828
-8.1547117 -19.450001 26.668102
-8.0490742 -21.975 24.390265
-12.838071 -19.049999 26.630873
-7.4992037 -20.272503 25.919975
-10.758034 -21.975 24.026009
-12.505264 -21.975 22.714077
-12.414101 -21.975 25.915108
-8.7728777 -20.518284 28.126053
-7.8690453 -21.587002 24.239424
-7.3562193 -21.272387 25.672358
-8.9594202 -21.975 25.404377
-11.113562 -19.800039 22.083099
-11.201436 -20.345015 28.7169
-8.9333639 -19.049999 26.62052
-7.5747585 -21.84269 24.874825
-11.466525 -21.975 24.058575
-9.5916996 -20.387608 22.083099
-12.727309 -21.504253 28.7169
-11.465553 -21.975 25.707127
-11.769065 -19.049999 23.395159
-7.3175364 -20.019283 25.605337
-12.355816 -21.975 23.586628
-8.2675982 -19.049999 24.522623
-11.029675 -19.30751 28.339985
-7.974957 -21.644091 26.743996
-12.797444 -19.450001 22.420298
-12.188795 -19.049999 23.358665
-12.092989 -19.049999 28.073591
-13.38528 -20.465702 27.952557
-9.9715919 -21.975 26.732014
-7.3318558 -21.356977 25.169838
-11.322976 -19.450001 28.416979
-9.8076897 -21.628799 22.083099
-12.929589 -21.975 27.137381
-10.013432 -20.776436 28.7169
-9.1715908 -19.049999 24.553051
-7.640316 -20.563625 26.164383
-9.7986279 -20.164568 28.7169
-9.0062561 -21.76849 22.394857
-9.7342577 -20.009773 28.716898
-8.3089695 -19.450001 26.751661
-12.72189 -20.248751 22.083099
-13.745987 -20.938566 23.472219
-12.419625 -20.547882 22.083099
-9.3281622 -19.507856 22.083099
-8.1011448 -20.261465 23.837429
-9.0285511 -21.511042 22.231079
-11.224771 -21.975 24.945108
-13.50409 -19.063242 26.986443
-11.31786 -19.479538 28.7169
-9.2492828 -19.450001 22.36957
-9.1819391 -19.450001 28.415993
-9.5192604 -21.975 23.421673
-8.0360975 -21.975 26.676771
-10.303127 -21.975002 26.545292
-14.242473 -21.975 25.13566
-8.1475973 -20.149372 27.043036
-8.1445236 -19.450001 26.551023
-8.7843094 -21.975 27.023129
-8.3949308 -21.975 27.090296
-14.581034 -21.796316 25.002529
-12.052917 -21.975 22.721348
-11.367526 -19.049999 28.002819
-12.266898 -21.738083 22.083101
-11.26674 -21.975 25.433084
-12.793971 -21.799545 22.297916
-7.4932666 -20.827921 25.909727
-13.587984 -21.024752 23.198553
-9.3246479 -19.049999 23.885126
-8.83463 -21.975 26.782656
-14.858751 -19.889206 25.399569
-10.989548 -21.548458 28.7169
-14.469681 -21.843081 26.008257
-8.5709429 -19.049999 25.99704
-8.6809511 -21.868847 27.926186
-8.497839 -19.706379 27.649681
-11.919668 -21.188135 28.7169
-11.250078 -20.204821 22.083099
-8.0485039 -20.404392 26.871393
-10.902768 -21.975 26.206387
-8.8016005 -21.975 24.605944
-12.084219 -19.450001 28.460001
-14.050602 -21.79104 23.999844
-14.575388 -21.044336 25.891195
-11.167878 -19.049999 28.332148
-10.255169 -21.975002 25.075506
-9.090477 -19.049999 26.035137
-10.613677 -19.227821 28.309948
-12.87785 -21.975 26.122295
-12.328754 -20.229931 22.083099
-10.204846 -21.975 22.254084
-13.165291 -21.487209 28.333542
-9.5143185 -19.450001 28.444418
-9.9154119 -21.975 28.090744
-12.776882 -21.975002 23.075712
-13.696088 -19.450001 26.685879
-11.424038 -21.974998 24.041874
-13.607064 -19.604179 23.231571
-7.2872252 -21.427771 25.247145
-8.0577068 -21.975 24.333355
-8.5972767 -19.049999 26.881975
-10.45689 -19.993965 28.7169
-10.091803 -19.450001 22.179314
-8.857008 -19.049999 24.723776
-11.879818 -19.049999 23.338697
-11.861534 -21.282103 22.083099
-13.017444 -19.9744 22.210316
-13.010813 -19.049999 23.923731
-7.6670237 -21.099667 26.210657
-10.498623 -21.975 25.350416
-9.2977772 -21.975002 23.520538
-9.3203297 -21.975 27.853357
-10.973045 -20.326023 28.7169
-9.0054798 -19.450001 28.010181
-13.085127 -19.484438 28.472462
-12.950128 -19.563696 22.093714
-14.193638 -19.450001 25.543953
-9.8997335 -21.974998 24.620094
-14.069879 -21.973928 26.593369
-11.199163 -20.534817 28.7169
-9.7962093 -19.049999 27.43634
-12.467127 -20.402348 28.7169
-13.238325 -20.096264 22.592901
-12.048317 -21.05781 28.7169
-12.815432 -19.049999 27.445677
-11.860863 -20.413193 22.083099
-9.7144594 -21.913921 22.295979
-11.841465 -21.975002 26.120077
-9.384737 -21.975002 25.272053
-7.8271441 -21.932493 24.454927
-14.176353 -21.896955 26.582314
-14.028359 -21.451235 23.961319
-9.79105 -19.450001 28.139999
-7.62749 -21.733541 26.142172
-11.762903 -19.723278 22.083099
-7.4025159 -21.763885 25.577763
-7.981019 -21.101927 24.045513
-8.8492537 -19.326662 27.372366
-12.609164 -21.975 28.220755
-8.8805923 -19.450001 22.738205
-12.385025 -21.975 22.894394
-12.797555 -19.616032 22.083099
-9.1950607 -19.049999 26.459805
-13.054026 -19.049999 26.552147
-14.46299 -21.399361 24.714052
-11.018715 -21.975 28.230074
-10.96209 -21.975002 26.217707
-9.3122969 -21.975 23.32077
-13.977877 -20.435741 23.873859
-7.9676099 -21.418188 26.731256
-12.009296 -19.049999 23.525448
-14.575817 -20.91041 25.890491
-10.133571 -21.975 23.847775
-8.5279617 -19.450001 23.526009
-9.9626064 -21.975 28.419071
-13.069401 -21.975 27.720278
-10.789625 -21.975 22.46546
-8.116971 -21.560179 23.810043
-14.157801 -21.974998 26.115408
-11.096885 -21.974998 22.635176
-8.1983347 -20.657051 27.130901
-12.893593 -19.049999 27.594702
-8.2777014 -19.139246 24.365145
-8.0940905 -21.961855 23.918274
-13.718866 -19.049999 24.728413
-8.2527885 -19.189865 26.365746
-13.078016 -20.858662 22.31529
-8.5277758 -21.598972 23.098492
-12.149924 -20.614603 22.083099
-9.270215 -19.450001 22.915951
-12.06263 -19.049999 27.103474
-7.2376256 -19.841171 25.33308
-13.963728 -19.237034 25.234125
-12.3699 -21.975 27.542309
-13.809341 -19.081573 24.446484
-8.8800745 -21.302341 22.488256
-10.446401 -19.450001 28.509937
-12.85822 -21.975 26.518383
-9.6148186 -21.372408 22.083099
-8.651185 -19.049999 23.820282
-13.732982 -19.049999 25.332211
-10.605447 -21.031063 22.083099
-8.5300016 -21.135796 27.7054
-11.727278 -21.975 23.37755
-12.784253 -21.234577 22.083099
-10.331575 -19.450001 28.282545
-8.4602156 -19.590054 23.215481
-8.81633 -19.262062 23.465164
-10.457565 -21.975002 24.198086
-12.440831 -21.975 27.992985
-11.292109 -19.049999 27.761692
-12.247405 -21.975 27.837082
-10.775606 -20.729717 28.7169
-14.430048 -21.624977 24.657015
-11.008296 -19.049999 23.291779
-7.8080597 -21.733135 26.454912
-8.9977455 -19.049999 25.552881
-12.885739 -21.971609 28.092928
-12.73456 -21.975 25.989859
-9.1927624 -20.967731 22.083099
-12.667579 -19.433397 22.95981
-9.100976 -21.394033 22.105639
-10.710564 -20.083324 22.083099
-9.2902517 -21.975 22.720936
-9.6616936 -21.876389 28.551811
-13.831615 -21.32509 27.179455
-10.450014 -21.136574 28.7169
-10.458303 -21.975 25.918331
-12.523288 -19.405605 22.868637
-9.1857777 -21.844374 22.43504
-14.536509 -21.385038 25.958523
-9.7009573 -21.975 23.735155
-12.518966 -21.975 26.775118
-8.267765 -21.975002 26.733566
-13.146948 -19.049999 25.610054
-7.9275064 -20.029655 24.138176
-8.7696333 -21.974998 23.074354
-8.4607296 -20.829145 23.214615
-9.1354885 -21.975 26.892338
-14.21512 -20.113163 24.284775
-12.997953 -21.975 27.436401
-12.122145 -19.619532 28.7169
-10.792612 -21.975 24.94187
-10.980218 -19.450001 22.124645
-7.5812864 -20.573166 24.737852
-14.140905 -21.975 25.706432
-9.0987148 -20.842258 22.109554
-11.605247 -21.942587 28.671322
-8.79846 -20.935236 28.170368
-11.302291 -21.975 22.85117
