# .PCD v0.7 - Point Cloud Data file format
VERSION 0.7
FIELDS x y z
SIZE 4 4 4
TYPE F F F
COUNT 1 1 1
WIDTH 320
HEIGHT 1
VIEWPOINT 0 0 0 1 0 0 0
POINTS 320
DATA ascii
-10.370892 -10.387625 23.523468
-10.218737 -10.024583 27.215971
-12.737548 -17.855314 24.382496
-9.3948917 -12.731833 24.266373
-11.205827 -12.805403 23.418983
-12.938348 -8.5289755 25.955435
-10.620111 -18.022495 23.453808
-12.504261 -16.121284 24.066399
-12.85824 -17.685619 26.180166
-11.564003 -15.404387 27.315308
-12.525002 -9.7383251 24.090042
-12.341152 -11.648777 26.894125
-9.1667175 -13.658897 24.702265
-10.231795 -15.549757 27.221729
-9.044879 -14.89499 25.267385
-9.6234646 -14.121364 23.992727
-9.7838364 -15.961098 23.849541
-11.963786 -16.387827 27.1553
-9.0840664 -7.6811352 25.815104
-11.59964 -15.687652 23.495089
-12.492413 -18.312372 26.746822
-12.941263 -14.937726 25.945438
-10.408618 -16.975544 23.510664
-9.3091764 -18.976557 26.398977
-9.0536222 -8.2097597 25.62879
-12.959592 -10.837841 25.876368
-11.2025 -10.54138 23.418621
-9.5238972 -11.058645 24.10033
-10.092344 -7.0500002 25.916664
-11.191494 -11.226017 23.417889
-10.762453 -18.280073 23.429068
-10.753729 -16.784309 23.430412
-9.9935732 -10.121922 23.70232
-11.73987 -7.0500002 26.95153
-12.531445 -7.1706395 24.353336
-12.922243 -10.276583 26.008873
-12.460276 -17.041151 26.780407
-9.1927633 -7.28301 26.035622
-13.015295 -12.116747 25.30098
-12.330688 -9.8612337 26.903322
-12.075104 -7.2291837 26.973221
-9.0460682 -15.891984 25.249233
-10.824662 -9.1958523 23.421972
-11.618919 -13.15554 23.500713
-10.5591 -13.167887 27.332224
-9.9965219 -9.9124413 23.700533
-11.451188 -7.0500002 23.916046
-13.000317 -18.93965 25.13596
-9.4335403 -8.4427681 24.213028
-9.0417643 -16.031147 25.481493
-10.334614 -13.664145 23.536469
-12.85268 -9.3180199 26.192776
-13.003393 -14.939611 25.162354
-9.0770588 -13.87442 25.020126
-9.7850389 -9.0975609 23.848576
-12.121655 -10.978752 23.738514
-12.123722 -16.602398 23.739895
-11.225641 -15.35727 23.421143
-9.0808525 -12.239615 25.798952
-9.2643299 -7.7796559 26.31761
-9.0540009 -8.6870384 25.632242
-9.7530632 -14.81939 23.874229
-13.013414 -10.064471 25.27239
-11.411645 -15.421824 23.448597
-9.31353 -8.5860033 26.406151
-12.261306 -7.0500002 26.577387
-11.19001 -13.100492 27.382208
-11.139099 -15.65862 27.385561
-11.625604 -16.722673 27.297337
-9.0407534 -16.628611 25.364952
-9.0667458 -12.38105 25.077053
-10.324866 -9.8126793 27.259748
-11.50008 -10.437447 23.468063
-9.1388464 -12.751801 24.781849
-12.503172 -7.1969471 24.27
-10.346062 -17.074909 23.532024
-12.970181 -14.489519 25.833038
-9.1743345 -16.657255 26.117327
-9.0414047 -13.844177 25.464977
-11.969432 -15.726345 23.6478
-12.647354 -7.0500002 25.014053
-11.606034 -7.9937563 23.496954
-9.0604076 -15.302628 25.681751
-12.051146 -7.2459083 23.790771
-12.798453 -16.163025 26.30793
-9.1497841 -17.768785 24.74962
-12.789794 -17.027281 24.475218
-13.000648 -13.811353 25.138111
-12.34657 -7.0500002 24.789881
-12.608559 -8.9042692 24.191328
-9.2206011 -8.2769022 24.572439
-12.976895 -11.898906 25.000015
-10.798903 -8.3140755 27.375219
-12.990499 -12.614878 25.072136
-9.1106339 -10.41427 24.87534
-9.1948547 -14.028303 24.630928
-9.0674477 -15.728962 25.727505
-13.016146 -13.539074 25.315304
-10.089027 -14.308865 23.647549
-9.140563 -9.6397429 26.023212
-9.3958302 -8.2149267 26.535028
-10.04118 -13.815149 27.126169
-12.829607 -14.156624 24.555351
-12.35933 -10.715497 23.921852
-11.834023 -12.787289 23.581738
-10.658446 -7.6002145 27.353806
-12.105465 -7.0500002 26.404545
-12.309678 -16.344881 26.921787
-12.858517 -13.794684 26.179537
-13.016418 -8.642498 25.327761
-9.1048174 -17.891537 24.89723
-9.1552038 -17.0042 24.733654
-10.381004 -7.3055573 27.255791
-9.0489225 -8.5357409 25.585922
-10.944817 -16.136845 27.387157
-11.708344 -14.703471 23.530676
-10.376188 -7.0500002 25.976254
-9.8283176 -11.448042 26.985447
-12.987135 -13.918775 25.748726
-13.015116 -8.6189632 25.501747
-10.00326 -9.995532 27.103552
-10.796665 -11.011723 23.425026
-9.1499729 -15.289262 24.749067
-10.543986 -14.358546 23.471485
-10.380912 -12.970146 27.279934
-12.377716 -18.589163 23.9384
-9.0421867 -15.93212 25.30851
-9.0455818 -10.608479 25.543346
-9.0552969 -12.714937 25.155937
-12.11817 -7.0500002 25.394875
-10.401214 -9.9848309 23.513176
-9.0401773 -9.6629028 25.408611
-12.558019 -10.619245 24.128242
-9.5522451 -17.882223 26.731968
-12.361037 -18.928171 23.923351
-10.745423 -7.0500002 25.591288
-12.29289 -17.841482 26.935419
-12.324885 -18.875223 26.908421
-12.090856 -12.74544 23.718349
-10.049731 -8.720439 27.130865
-12.152699 -7.0500002 25.24551
-9.477375 -17.9916 26.643667
-9.9899263 -11.691902 23.704533
-11.806824 -12.767378 27.23024
-12.514109 -18.553406 24.077625
-9.0836124 -15.145771 24.987185
-11.757835 -16.714081 27.250137
-9.0607347 -17.471426 25.683874
-9.4073772 -8.4155254 26.551285
-12.484735 -12.357281 24.045155
-9.2086754 -14.177384 26.200468
-12.811879 -11.524466 24.519341
-12.791475 -18.127115 26.32172
-10.056265 -13.19354 27.134453
-12.746253 -14.608547 26.403154
-10.006751 -7.2851954 23.744907
-10.749046 -7.0500002 24.676025
-13.008776 -17.174971 25.211697
-12.97342 -7.6587534 25.81739
-9.2616014 -19.010447 24.487923
-10.509941 -16.600801 27.319958
-11.752327 -7.0500002 23.874224
-9.4399242 -13.580493 24.204319
-12.99913 -9.8745871 25.671753
-12.625314 -12.559851 26.585812
-12.172882 -10.963851 23.772959
-12.853506 -11.193304 26.190907
-12.674829 -12.514911 24.283924
-11.559107 -7.8819623 27.316734
-11.26153 -11.134464 27.374949
-9.7651138 -8.0224199 23.864559
-12.951502 -15.607202 24.890526
-11.550329 -8.2928848 27.319294
-9.4433727 -11.82874 26.600382
-10.385417 -7.0500002 25.63019
-9.1356888 -14.713923 24.791149
-12.024247 -11.487965 23.677954
-11.097685 -17.79653 23.412506
-12.550512 -11.618883 24.119122
-9.4224472 -18.137596 24.228157
-12.443509 -19.001261 26.797928
-9.5543213 -11.013291 26.734337
-11.165085 -7.0500002 26.849236
-12.126642 -12.602571 23.74185
-10.452972 -8.4160461 23.49666
-11.559813 -7.0500002 24.125221
-12.841163 -18.234829 26.218906
-13.016447 -11.972373 25.329048
-12.899741 -10.312308 24.724831
-9.085043 -8.9420786 25.820011
-9.0402021 -11.782602 25.390295
-9.1066847 -16.501905 24.889599
-9.6173325 -12.645229 26.800949
-12.497241 -18.120884 24.058397
-11.910938 -14.607326 23.61775
-10.850546 -7.3987803 27.38085
-9.4836349 -7.2176309 24.332993
-9.118784 -10.104088 24.847378
-12.74405 -15.123982 24.393215
-13.005909 -13.692947 25.185417
-9.4963856 -7.0500002 25.527681
-9.1604595 -7.5495291 26.081636
-9.6234798 -10.319348 23.992712
-10.402269 -7.7984004 23.512817
-10.185488 -18.237003 27.201168
-11.245585 -10.651783 27.376684
-12.789818 -10.63883 26.324738
-10.452728 -17.142767 23.496735
-9.9409552 -14.456887 23.73542
-9.0565538 -9.6831799 25.655531
-12.1419 -9.8171568 27.047951
-9.9133682 -10.59997 27.046152
-12.253954 -18.944702 23.833351
-9.792799 -9.8162651 26.957655
-12.910133 -15.320506 26.044558
-13.009015 -10.662738 25.213896
-9.9544315 -7.0500002 25.709049
-10.87297 -13.267352 23.417456
-11.4496 -13.557534 23.456133
-12.877197 -7.9121952 24.666101
-12.349045 -10.301296 26.887188
-9.859024 -14.912279 23.792044
-10.105159 -14.341326 23.638691
-12.484365 -9.4919844 24.044767
-9.356041 -16.740171 24.32448
-12.275401 -14.938623 26.949446
-10.291818 -18.460497 27.24692
-12.06291 -12.140039 23.701401
-11.869173 -18.671434 27.202789
-9.419425 -8.7583084 24.232281
-13.017313 -7.8364978 25.431314
-10.014738 -14.894494 27.110516
-11.180266 -14.361807 23.41715
-11.576537 -8.9419413 27.311649
-12.916862 -14.78216 26.024727
-11.059808 -14.87895 23.411674
-11.424376 -9.0206032 27.348875
-9.0403519 -18.858574 25.416637
-12.834199 -10.090389 24.565298
-9.6679411 -13.129387 26.849846
-9.2484379 -12.313192 24.514606
-10.027084 -14.43862 23.681997
-11.816983 -8.3835926 27.225765
-12.190229 -16.294624 27.014328
-12.726357 -18.600624 26.435959
-10.451962 -16.400248 23.496956
-12.481686 -11.113888 26.758032
-12.281832 -8.7187757 23.855715
-11.386114 -7.526855 23.443527
-9.6261063 -8.0622797 23.990196
-11.126098 -17.669905 23.413586
-9.8832064 -14.72217 23.774319
-9.8369541 -14.997663 26.991777
-12.630281 -12.243752 26.579033
-10.271814 -9.9059992 27.239159
-13.017048 -11.542969 25.443504
-12.807343 -17.732777 26.289873
-13.009154 -18.87781 25.58482
-9.8486891 -12.197687 27.00038
-10.631523 -14.543881 27.348455
-12.154765 -11.400985 27.039351
-11.279487 -15.887559 23.427006
-10.03673 -15.17675 23.676273
-10.226205 -17.320759 27.219265
-9.163311 -7.2184358 25.180077
-11.917665 -9.4632721 23.621063
-11.831017 -8.8765898 27.219587
-9.960144 -13.142399 27.077394
-11.379888 -8.1578169 23.442289
-9.0893345 -9.1067848 25.839514
-9.044445 -10.10186 25.52597
-11.181624 -14.222679 23.417238
-9.096818 -17.953495 24.929913
-12.767658 -10.038044 24.434919
-11.629026 -9.7878733 27.296246
-9.6651163 -18.164143 26.847139
-11.683612 -14.012079 23.522282
-9.53125 -14.270895 26.708048
-11.639386 -10.564019 23.507269
-12.721897 -17.58235 24.356689
-11.959957 -9.0985394 27.157406
-11.738011 -18.650467 27.257843
-9.3448162 -7.0821409 24.952524
-9.6913509 -11.582072 26.871767
-9.7801094 -16.617317 23.852528
-10.1367 -14.095877 23.62285
-11.208575 -9.4676495 23.419285
-9.0965061 -8.578845 25.868811
-9.5798378 -12.921541 24.038225
-11.706108 -7.0499997 26.390263
-10.371254 -13.399566 27.276653
-10.376599 -8.243494 27.278469
-11.967535 -11.961548 27.15324
-10.257856 -7.873282 27.233219
-12.901471 -7.4939094 24.729929
-11.721806 -8.6633282 23.535858
-10.137462 -11.628521 27.177525
-11.342354 -7.0500002 24.458843
-12.419538 -7.3660927 23.978422
-12.973145 -16.510235 24.981239
-10.467813 -7.0500002 26.626492
-11.351051 -14.191017 27.362392
-9.0680885 -11.565067 25.068329
-9.1497383 -15.864192 24.749756
-10.737221 -17.954136 23.432949
-10.730568 -10.511364 23.433973
-10.145471 -13.913857 23.618536
-11.583862 -9.0524912 27.309511
-12.208144 -9.9663105 23.798801
-12.855233 -12.776426 26.186989
-12.767006 -16.097744 26.36627
-9.2352486 -16.574062 26.258659
-12.525431 -17.201696 24.09053
-11.271188 -8.104125 23.426104
-9.1356449 -13.050344 26.008722
-13.011419 -13.738259 25.55792
-9.2164965 -17.412487 24.581764
-9.2692404 -14.378718 26.326641
-11.854546 -12.640036 27.209229
-11.226826 -15.313965 23.421272
