# .PCD v0.7 - Point Cloud Data file format
VERSION 0.7
FIELDS x y z
SIZE 4 4 4
TYPE F F F
COUNT 1 1 1
WIDTH 66
HEIGHT 1
VIEWPOINT 0 0 0 1 0 0 0
POINTS 66
DATA ascii
-9.4861498 -19.049999 27.490862
-12.195032 -19.450001 22.33787
-12.067009 -19.049999 27.703129
-8.4880924 -19.29838 26.878609
-12.376209 -19.049999 23.409948
-10.603391 -19.366116 22.491634
-11.953945 -19.049999 23.509356
-9.9772806 -19.049999 27.439323
-10.526712 -19.049999 27.907131
-13.869759 -19.049999 25.522327
-9.104516 -19.450001 23.151419
-9.7942123 -19.049999 27.909105
-8.444418 -19.278297 26.799889
-11.664639 -19.085051 28.270432
-13.054614 -19.355576 23.270115
-13.699717 -19.049999 26.030956
-12.888783 -19.049999 23.147753
-9.3120136 -19.050001 26.609972
-10.613441 -19.049999 28.024767
-11.661337 -19.049999 22.991776
-10.499258 -19.049999 22.753763
-9.7624159 -19.450001 28.589745
-11.880738 -19.450001 28.662813
-13.920238 -19.226768 25.930935
-12.52362 -19.049999 23.181688
-9.2731228 -19.049999 27.16571
-8.2049475 -19.049999 25.531136
-8.0985794 -19.449097 25.63191
-13.956213 -19.069603 25.129345
-8.5581388 -19.450001 27.070726
-9.7425594 -19.450001 28.516136
-13.157096 -19.450001 27.660889
-9.1665039 -19.450001 28.482983
-9.2816019 -19.049999 27.661324
-10.966388 -19.049999 27.839069
-14.481788 -19.450001 26.036739
-8.6684341 -19.450001 27.337496
-13.232721 -19.049999 25.194973
-9.1312275 -19.450001 27.737463
-9.6791515 -19.049999 27.296204
-9.2447701 -19.450001 23.062126
-8.0802746 -19.450001 25.729107
-13.510865 -19.127882 23.824036
-11.652397 -19.049997 22.702944
-13.423303 -19.450001 23.572285
-11.690491 -19.450001 28.397467
-12.743899 -19.450001 22.547382
-9.7492838 -19.049999 27.304213
-11.173289 -19.099438 28.336143
-13.43398 -19.172611 27.090828
-9.3153439 -19.212984 23.011724
-13.472963 -19.049999 23.921638
-13.100029 -19.450001 23.065952
-12.957906 -19.049999 24.312557
-12.939365 -19.049999 23.40542
-10.244842 -19.049999 22.591204
-8.143157 -19.15955 25.958286
-12.506357 -19.049999 23.662676
-9.9287968 -19.049999 23.582241
-8.4662685 -19.16264 23.96027
-10.990718 -19.450001 28.699329
-8.3085041 -19.049999 25.485096
-9.7525902 -19.049999 27.043909
-12.952278 -19.450001 22.529707
-12.136013 -19.450001 28.154171
-13.923589 -19.049999 25.394899
