# .PCD v0.7 - Point Cloud Data file format
VERSION 0.7
FIELDS x y z
SIZE 4 4 4
TYPE F F F
COUNT 1 1 1
WIDTH 508
HEIGHT 1
VIEWPOINT 0 0 0 1 0 0 0
POINTS 508
DATA ascii
-11.515859 -9.2821045 23.471939
-13.149078 -21.393881 28.361629
-7.4989548 -21.802078 24.905087
-9.5809889 -12.185304 26.762976
-12.568621 -14.973456 26.65856
-13.367317 -21.975002 25.802158
-9.4499264 -11.330721 26.609322
-11.603231 -20.062363 22.083099
-7.8423104 -20.269575 24.285744
-12.518955 -17.705276 26.71685
-10.851873 -14.5984 23.419006
-10.376976 -12.74893 23.521402
-13.368842 -21.975 23.36343
-12.614826 -12.869312 24.199879
-11.689924 -19.982927 28.7169
-11.659597 -13.999665 23.51413
-7.2590103 -20.298193 25.503969
-12.285053 -19.008945 26.941704
-11.671754 -21.975002 26.129936
-11.017097 -14.927773 27.388741
-10.574077 -12.627029 23.464096
-11.631645 -10.972116 27.295357
-12.638425 -9.4573021 24.232079
-12.604523 -12.345829 24.186115
-12.712927 -14.528925 26.458107
-11.590423 -7.0500002 26.588346
-11.163484 -13.215082 27.383953
-8.3189869 -21.263365 27.33987
-11.12746 -7.9451942 23.413673
-11.307196 -17.213631 23.430859
-12.340153 -13.129391 23.904995
-12.486635 -7.1062779 24.402084
-7.5952268 -21.541428 26.086292
-12.742454 -20.771004 22.083099
-10.131374 -21.975002 26.454403
-12.890478 -16.54652 26.099676
-11.636387 -15.563011 27.293749
-13.017269 -15.004463 25.366623
-12.954467 -12.937081 24.902662
-11.363902 -19.636459 22.083099
-9.137907 -9.8826923 26.015385
-11.411698 -21.975 23.561815
-10.860925 -7.8115945 27.38175
-12.055067 -21.975 27.479929
-13.338088 -20.920214 28.034311
-12.618429 -13.888031 26.595207
-13.712744 -21.375776 23.41465
-12.088194 -18.296698 23.716732
-8.1296768 -20.545757 27.011986
-10.857775 -18.980417 23.418457
-12.630436 -18.628277 26.578821
-9.655056 -16.70525 23.962488
-10.491628 -21.975 22.458237
-9.1417303 -8.9268694 24.773354
-10.855795 -8.2171621 23.418589
-9.0843039 -17.92251 25.816298
-10.326787 -21.975002 23.679623
-11.824533 -11.067425 23.577559
-12.99643 -9.2310257 25.689297
-8.9763603 -19.874535 28.478508
-12.300178 -8.2247515 26.929573
-10.204885 -12.45817 23.590134
-10.756445 -15.915897 23.429993
-12.190258 -7.0500002 26.523224
-12.088445 -8.309597 23.716887
-14.265928 -20.052458 24.372776
-12.339394 -16.516817 26.895672
-12.903782 -21.975 24.175098
-12.652415 -17.667894 26.548828
-14.303731 -20.809879 26.361732
-10.450342 -7.057806 23.782173
-10.11912 -9.1045942 23.631508
-14.468203 -20.721416 24.723133
-11.325491 -19.516468 28.7169
-11.610186 -21.450928 28.7169
-9.1067066 -20.29483 22.095713
-10.76726 -16.636126 27.37167
-9.150054 -12.494247 26.051174
-12.941767 -18.356369 25.943707
-12.91713 -16.269745 26.023937
-10.950987 -15.647985 23.412708
-12.95027 -11.498699 24.885487
-13.680498 -21.575283 23.358751
-12.172787 -21.849358 22.110733
-8.7304163 -21.894577 22.888254
-11.960057 -17.879604 27.157351
-13.514673 -21.975 24.369076
-12.98451 -8.3882523 25.038134
-9.9204102 -18.808578 27.050854
-11.031675 -21.975 27.180025
-9.2204609 -9.9822388 24.572758
-8.1069736 -20.181948 23.827328
-12.050699 -15.334447 27.106005
-11.804232 -13.47765 27.231379
-12.998278 -10.392208 25.122702
-9.3181391 -11.121605 26.41375
-11.697039 -21.974998 27.389744
-12.010789 -14.711548 23.670517
-8.1769505 -21.577005 27.093845
-9.6127033 -18.313299 24.003889
-10.470876 -16.534491 27.308561
-9.8031139 -18.667778 26.965931
-14.116407 -20.847015 24.113811
-12.775434 -7.2564435 26.189487
-10.110579 -20.227999 22.083099
-9.4845333 -17.705803 26.65259
-8.2436695 -21.794685 23.590563
-12.612341 -10.733494 24.196487
-10.276471 -15.376952 27.240965
-12.647748 -12.097256 24.244801
-9.0580893 -16.913353 25.666679
-12.216315 -17.919079 23.80479
-8.6280308 -21.275009 22.924835
-9.7196226 -15.805473 26.896599
-9.8369675 -21.975002 25.030493
-11.858749 -18.14847 23.592623
-12.502653 -14.977823 24.064568
-12.954642 -16.521868 24.903378
-13.259492 -21.975 26.88298
-13.482424 -21.88208 23.015747
-9.1105194 -12.103764 24.875734
-9.1683502 -21.815533 28.412788
-9.2838421 -8.6788588 26.353264
-9.5577402 -15.581925 26.738232
-11.504517 -8.5375452 23.469154
-7.4253359 -20.775457 25.792027
-12.717058 -10.120804 24.348709
-11.431987 -9.0529766 23.452637
-10.949975 -13.8002 23.412731
-8.9039249 -21.975 24.016405
-10.619522 -21.975 22.617746
-12.003343 -19.888332 22.083099
-9.0908804 -16.257236 24.954174
-12.159046 -7.0500002 25.034878
-12.833826 -14.544505 26.235554
-12.79945 -17.688194 24.494095
-9.41434 -13.083115 24.239216
-10.617976 -11.447435 27.345768
-9.3896646 -17.863672 26.525806
-9.1439314 -9.7819138 26.033134
-7.8179626 -20.161255 26.472084
-7.9928985 -21.975 26.390434
-11.612376 -13.183233 23.498806
-12.947808 -16.487495 25.923002
-10.303909 -11.841211 23.548386
-10.721711 -13.433804 23.435335
-12.849459 -8.1440372 24.599913
-13.339271 -21.28907 28.032211
-9.1166191 -10.773949 25.945194
-13.015443 -15.909767 25.496777
-9.2773495 -9.5251274 24.458572
-12.659237 -20.848957 22.083099
-9.1643505 -15.56056 26.091646
-12.375633 -16.596735 26.863594
-9.148736 -18.100822 24.752708
-9.0762644 -12.596754 25.024113
-8.4571342 -20.078136 27.57917
-10.090487 -10.685594 23.646748
-8.7971907 -19.758915 22.631821
-12.995455 -12.024956 25.695644
-10.363404 -7.5488825 23.526009
-11.510376 -20.439911 22.083099
-12.510344 -16.572716 24.073334
-12.648502 -14.32757 26.554169
-8.0306225 -19.688667 26.840435
-10.950366 -18.039892 27.38728
-9.5981102 -20.904047 22.083099
-9.5443525 -13.022228 24.077023
-10.389948 -7.735311 23.516998
-10.830569 -12.10209 27.37867
-9.1070633 -20.635769 22.095097
-14.396685 -21.901184 25.812475
-10.538897 -10.719074 23.472734
-9.534297 -21.975002 27.308306
-14.539724 -21.299866 24.847042
-10.186578 -21.975 26.13657
-10.958053 -20.469067 28.7169
-9.5523224 -12.840052 24.067942
-12.50983 -12.456416 24.072746
-12.043128 -17.759857 27.110598
-8.6387386 -21.785593 27.893705
-12.777773 -16.892052 26.346668
-12.680153 -16.40518 24.291889
-8.0763292 -21.259809 23.880432
-12.10807 -8.6676521 23.729431
-14.134104 -20.626493 26.65554
-13.559652 -20.226921 27.650536
-11.414754 -17.516737 27.350786
-9.0566196 -7.4117603 25.656136
-9.0415077 -18.53233 25.330318
-12.108343 -13.967159 27.070385
-9.0561743 -10.247295 25.652065
-9.6401711 -13.583378 26.823265
-13.005142 -16.827736 25.178379
-12.57808 -12.780741 26.646791
-9.3864479 -8.232935 24.279003
-11.488988 -13.410313 27.33466
-7.3325772 -19.752975 25.168625
-9.283927 -7.6909795 26.35342
-12.547015 -7.0500002 25.36454
-9.1461287 -21.195015 28.7169
-9.3522816 -11.859875 26.4699
-10.965393 -21.974998 23.125622
-9.1715546 -14.399187 26.110176
-9.3709888 -15.336052 24.302124
-13.287141 -21.975 27.44911
-9.0877514 -15.109335 24.966963
-10.553941 -7.0500002 25.762297
-10.416345 -16.021587 27.29196
-12.947639 -8.4425325 25.923576
-12.387122 -18.065994 26.8526
-9.2387638 -13.738013 26.265783
-9.1408777 -15.385325 26.024141
-11.850529 -8.9914675 23.589005
-11.216804 -15.821569 23.420181
-14.401726 -19.982748 24.607983
-12.874008 -10.072348 26.142115
-12.934414 -12.405893 24.831083
-9.0722532 -19.001282 25.755722
-9.6836843 -10.995447 23.935087
-9.5893755 -20.983353 22.083099
-9.042613 -18.995167 25.497995
-8.5956221 -20.320591 27.819038
-10.791491 -18.119892 23.425591
-12.232788 -13.94318 23.816862
-10.661311 -7.9351263 23.445625
-9.9741516 -8.9486208 23.714098
-8.475071 -21.064793 23.189779
-10.610118 -18.248926 23.455793
-14.603025 -20.825485 24.956654
-9.2141495 -17.262825 26.212906
-10.197608 -7.1071343 26.959669
-12.919241 -15.968051 24.782282
-10.030159 -12.038492 27.119867
-10.323133 -15.30925 27.259075
-11.869998 -11.649122 23.597595
-9.0678577 -11.750839 25.06982
-12.435471 -14.078005 26.806328
-12.181338 -9.9867487 27.020844
-9.2637291 -21.524147 22.083099
-9.112277 -7.4842567 25.9303
-8.3502398 -21.804058 23.406013
-10.845403 -20.740091 28.7169
-12.82436 -12.399775 26.255308
-12.822149 -7.4253669 24.540203
-12.525306 -16.227924 24.090387
-10.829311 -14.799541 27.378532
-9.4570808 -18.737228 24.181633
-10.584442 -12.337778 23.461552
-12.78201 -16.395346 24.461048
-14.500177 -21.208773 24.778463
-11.742989 -9.6179895 27.255909
-10.175213 -13.57781 27.196108
-10.542591 -8.9995518 27.328171
-13.006414 -18.9695 25.190056
-10.360762 -7.1347737 27.065969
-9.2507973 -15.375731 26.290176
-8.0064192 -19.712046 24.001488
-11.917277 -7.7755227 23.620871
-12.531116 -18.917448 24.097012
-13.556104 -21.667892 27.656666
-10.624841 -11.413039 27.347132
-11.675901 -17.33651 27.280334
-13.701854 -21.210184 23.395786
-11.965395 -21.974998 22.410679
-9.0633984 -9.1366558 25.701187
-10.718342 -9.10993 27.364145
-7.7886987 -19.50927 26.421412
-9.2495689 -12.650494 24.512314
-12.309553 -7.2146482 26.769344
-9.1856508 -12.417395 24.653561
-8.1131907 -20.477734 23.816568
-9.1057959 -8.1896887 25.906775
-9.1947098 -9.5516605 26.168743
-9.3423023 -15.889673 24.346426
-13.173334 -20.338366 22.480324
-9.1450462 -18.401863 24.76358
-9.0476208 -14.843702 25.225952
-11.087798 -7.0500002 25.813801
-13.641701 -21.975 24.160994
-7.3346415 -21.725945 25.516399
-10.337008 -16.685835 23.535538
-11.150801 -19.468567 22.083099
-13.186708 -20.643362 28.296478
-13.026198 -21.975 25.867285
-10.391009 -21.975 26.234165
-10.600043 -16.064844 27.342207
-11.138315 -11.733984 27.385612
-10.897261 -19.638233 22.083099
-13.696018 -20.739807 27.41433
-12.862536 -10.586703 26.17042
-13.011606 -11.828498 25.55508
-9.1173944 -9.8994255 24.852148
-12.713181 -11.151647 26.457685
-11.871469 -20.951984 28.7169
-12.707739 -17.095774 26.466658
-11.516867 -10.79772 23.472187
-9.6619663 -17.742136 26.844124
-9.8679962 -21.740101 22.083099
-10.292042 -14.396634 23.552994
-10.718804 -21.975 22.891287
-13.33223 -21.975002 23.761145
-12.674799 -9.3030434 26.516121
-12.978007 -12.829377 25.005581
-14.805593 -21.679819 25.390697
-9.7922153 -21.975 24.482853
-12.8467 -15.619867 24.593655
-11.956968 -21.975 23.802864
-13.592763 -21.975 24.950014
-11.529333 -16.514273 27.324753
-14.688984 -20.78826 25.694427
-13.005245 -20.534763 28.610821
-11.813631 -20.551859 28.7169
-11.844397 -17.348434 27.213696
-11.758629 -21.935484 28.653059
-9.6439981 -9.730504 26.826927
-11.936079 -9.7119341 27.169872
-12.383862 -7.0500002 26.052851
-8.6705093 -21.975 23.360525
-8.6441307 -19.694633 27.90307
-9.0443344 -18.102377 25.275719
-10.789805 -18.647652 27.374226
-10.268749 -17.151133 27.23797
-12.058796 -21.975002 25.724117
-7.9968867 -20.439127 26.781986
-9.1801987 -7.6189203 24.667587
-7.9031219 -19.813061 26.619595
-14.41153 -21.819368 24.624973
-13.010504 -12.107443 25.571821
-13.016798 -9.5492229 25.345108
-12.988381 -11.291657 25.741617
-12.959967 -12.578636 25.874836
-12.190105 -7.0500002 25.688599
-10.593704 -13.125378 27.340721
-12.996717 -18.606787 25.11256
-9.5181541 -21.193163 22.083099
-10.415527 -18.817513 23.508318
-9.6369972 -18.28504 26.820229
-8.1855307 -20.980814 23.691278
-10.000566 -10.547763 27.101919
-11.33968 -15.897469 27.364141
-12.612811 -9.0440865 26.602871
-9.8632107 -11.800627 27.011026
-9.5244131 -13.424125 26.700256
-11.4697 -14.864761 23.460604
-12.84732 -10.763032 26.204937
-12.131087 -17.977612 27.05518
-7.5009837 -19.770098 24.876934
-12.882495 -7.6956415 26.120247
-8.827672 -21.866293 28.060898
-13.016319 -18.903027 25.476742
-12.89861 -7.2318211 25.689709
-12.233244 -16.060333 23.817196
-10.413317 -21.220364 22.083099
-12.802677 -12.006107 26.299351
-9.8709936 -21.975 26.56271
-8.5394001 -21.975 23.52178
-9.906353 -18.198963 23.758535
-13.026659 -21.975 26.978691
-9.2430687 -16.12273 26.274511
-9.7741528 -18.160122 26.942694
-9.1521282 -7.6978855 24.742716
-9.073369 -21.975 24.171766
-12.098046 -21.246952 28.7169
-13.662701 -20.868124 23.327965
-9.9288025 -7.4003172 27.056461
-9.1224594 -12.793475 25.965233
-12.60431 -7.451869 26.614147
-7.902679 -21.081633 26.618799
-14.638411 -21.752388 25.017925
-11.234247 -8.9864082 23.422079
-9.4318342 -14.094797 26.584644
-11.5893 -17.467762 23.492073
-12.345265 -10.887175 26.890511
-9.2897491 -11.63233 24.43597
-12.710079 -9.3048544 26.462801
-10.313022 -21.975 23.177906
-9.0876017 -13.135569 25.832428
-9.452364 -14.89675 26.612488
-9.6237545 -21.831085 22.179169
-9.6080036 -7.3725643 26.791203
-11.26468 -21.588621 22.083099
-10.564547 -18.521011 23.466436
-9.0147028 -21.253494 28.544916
-9.4750891 -13.162399 24.159184
-11.260041 -20.345404 22.083099
-10.434591 -16.466917 27.297976
-12.129333 -20.965466 22.083099
-10.715775 -19.69434 28.7169
-11.834688 -8.3774204 23.582031
-9.3815784 -8.7013845 24.286287
-10.354586 -7.0500002 24.441994
-10.765279 -16.507332 27.371365
-12.75878 -13.636141 26.381248
-9.9506912 -12.070923 23.72892
-9.9366131 -7.0500002 24.331648
-13.258563 -20.345318 22.62793
-9.2982502 -12.761947 26.379532
-14.812086 -20.789448 25.481262
-11.509589 -10.962618 27.329599
-12.675973 -21.75325 28.656109
-10.345673 -9.3376455 23.532173
-10.127579 -9.0086994 23.627342
-14.494347 -19.706902 24.768402
-10.780252 -7.0500002 25.198177
-13.73401 -19.818333 27.348545
-14.078908 -21.922611 24.048862
-7.5409184 -21.306505 24.807779
-12.540897 -11.60445 24.108158
-13.867828 -21.975 26.137121
-12.61426 -13.777712 26.600893
-11.770277 -10.186432 23.554697
-13.41627 -19.53624 22.901102
-12.192932 -21.975 25.418526
-11.615319 -15.306591 27.300337
-10.629742 -9.8261528 27.348104
-14.567845 -19.800711 24.89571
-9.1108971 -14.55434 25.925564
-12.493205 -11.865543 24.054005
-10.472366 -16.263329 27.308994
-10.321913 -20.33926 22.083099
-11.272264 -21.950312 22.101248
-10.178721 -21.975 28.197475
-9.2742844 -15.223944 26.335838
-13.811962 -21.975002 26.220402
-9.089201 -12.702236 24.961039
-13.410107 -21.975 24.171761
-9.5291662 -21.826096 22.211937
-14.662642 -21.757095 25.647821
-9.0409222 -18.882526 25.357197
-9.4333553 -18.864691 26.58672
-12.697732 -9.2734947 26.481817
-9.3838701 -10.626146 24.282856
-12.27029 -11.839515 23.846458
-10.169353 -21.975 24.456196
-11.366951 -10.292768 23.440052
-9.0658369 -11.696949 25.717043
-13.747292 -21.975 24.222742
-7.3607059 -21.710207 25.119862
-11.608109 -7.9719753 23.497561
-9.2892532 -18.460991 26.363129
-10.876734 -7.5084634 23.41721
-12.715789 -11.304839 24.346615
-12.87879 -11.508297 26.129791
-12.317602 -19.981577 22.083099
-9.0475674 -11.467003 25.573563
-10.947065 -9.3443718 27.387207
-8.5160866 -20.480459 23.118727
-12.721002 -16.185799 26.44479
-12.242329 -20.758301 28.7169
-13.683372 -19.493662 23.363739
-9.8994551 -10.40736 27.03686
-12.770646 -8.448885 26.359644
-10.228304 -21.975 25.772121
-9.2343988 -9.9307127 24.543064
-10.637972 -9.2044802 23.45026
-12.473765 -21.975 24.430788
-12.901821 -15.830429 24.730959
-9.643857 -7.8770223 23.973206
-9.1462364 -18.497208 24.760075
-11.756203 -21.975 25.213203
-8.8028936 -19.571129 28.178057
-11.066381 -15.761978 23.411819
-11.675314 -14.007025 23.519464
-13.32862 -19.658638 22.749289
-14.512054 -21.687889 26.000864
-11.518448 -8.3970289 23.472576
-10.373358 -21.975 23.428991
-9.3530807 -14.511134 26.471096
-9.8531761 -15.801758 27.00367
-9.3122988 -10.945696 24.395878
-12.215404 -14.715798 23.804121
-12.191223 -21.974998 26.189816
-9.6974382 -9.0058346 23.922886
-12.623199 -7.5882249 26.588697
-11.575417 -7.0500002 24.451473
-9.1451664 -10.608561 24.763227
-8.8682146 -19.888628 22.508806
-12.959139 -9.6927404 24.92178
-11.231615 -11.964361 27.378206
-11.92862 -13.915434 27.173546
-8.6085157 -20.685991 27.84136
-11.907104 -16.385151 23.615864
-9.0664425 -18.480112 25.079029
-12.454351 -21.975 25.340834
-14.282155 -20.464531 24.400887
-10.202291 -10.053368 23.591278
-10.262785 -16.203537 27.23539
-10.232997 -21.975 24.714582
-9.1394615 -12.338854 24.780037
-10.04383 -21.974998 23.364773
-9.0969658 -16.860563 24.92931
-10.804254 -12.241437 23.424198
-10.984764 -11.329325 27.388031
-13.003363 -16.741341 25.162064
-12.571806 -9.9654694 26.654598
-13.007141 -18.520329 25.196712
-11.395153 -16.138443 27.354679
-11.997496 -17.500797 27.136784
-12.978031 -14.181017 25.005703
-11.217918 -11.036032 27.379698
-10.272522 -19.855743 22.083099
-8.3840599 -21.113775 23.347418
-9.7115717 -21.975 23.002045
-12.766317 -15.564086 24.43248
-10.541375 -17.028469 27.327871
-11.464853 -21.975002 25.248629
-12.102522 -21.103603 22.083099
