# .PCD v0.7 - Point Cloud Data file format
VERSION 0.7
FIELDS x y z
SIZE 4 4 4
TYPE F F F
COUNT 1 1 1
WIDTH 386
HEIGHT 1
VIEWPOINT 0 0 0 1 0 0 0
POINTS 386
DATA ascii
-9.7604847 -19.139555 22.748318
-9.6130285 -16.348595 24.003548
-13.000074 -11.258516 25.134378
-11.947035 -7.0500002 24.045977
-9.1959772 -19.049999 26.566851
-11.094958 -13.034391 27.387554
-9.2645721 -12.792728 26.3181
-10.154909 -14.465776 27.186115
-13.015398 -15.713089 25.497459
-11.936987 -16.383207 27.169426
-11.577755 -16.10117 23.488705
-9.9166126 -8.2801352 23.751682
-12.546346 -11.893909 26.685627
-9.204627 -14.043691 26.191273
-12.404453 -10.15406 23.963985
-9.1782436 -14.007015 24.672617
-9.0412598 -16.886406 25.458292
-9.8794823 -16.629652 23.777046
-12.632946 -16.546028 24.224604
-12.62647 -14.58642 24.215765
-9.592248 -19.049999 23.439423
-8.1733885 -19.450001 24.67136
-9.0433493 -14.265686 25.29076
-12.003983 -14.973639 27.133223
-13.899029 -19.450001 26.2542
-12.842099 -19.049999 26.346825
-12.477233 -19.049999 23.692675
-9.0550146 -10.584702 25.641487
-11.362386 -11.301069 23.439352
-13.082664 -19.049999 27.118275
-12.181448 -7.0500002 26.521662
-11.610807 -17.050392 23.49835
-12.956612 -12.914669 24.911434
-9.3923321 -12.208823 26.529797
-11.840905 -7.0500002 24.850353
-11.522402 -13.498843 23.473545
-12.060558 -18.449778 23.699974
-11.936522 -19.450001 28.638124
-10.225586 -17.208061 27.218994
-9.0412579 -15.683854 25.341797
-12.722329 -13.76883 26.4426
-12.963173 -17.937654 25.861712
-7.8464146 -19.450001 24.806513
-12.680916 -10.945545 26.506969
-12.843905 -15.746221 24.587315
-12.951099 -13.438386 25.911121
-10.531229 -11.924801 27.325382
-9.0481853 -7.4237175 25.220806
-9.8303175 -19.049999 23.798843
-13.015358 -8.4725714 25.301945
-11.876324 -12.295753 23.600712
-9.8205872 -13.440735 23.820221
-9.1763582 -12.697136 26.122532
-11.891876 -12.412354 27.191635
-9.4503212 -19.450001 28.150597
-9.4304037 -17.626799 24.217306
-12.89946 -11.641122 24.724003
-12.516298 -10.282333 26.719879
-9.6065779 -7.0500002 24.682768
-12.680771 -18.008957 26.507187
-11.847432 -9.7883663 27.21236
-12.214928 -18.898182 23.803772
-9.328413 -7.0518818 25.59795
-13.786466 -19.049999 25.995325
-12.851168 -13.595845 24.60379
-11.113423 -12.273082 23.412849
-9.3966179 -16.209099 24.263794
-10.944876 -15.438416 23.412842
-11.333242 -7.0500002 26.586569
-12.316513 -12.784883 23.884222
-10.139038 -7.1130567 23.865908
-12.317296 -15.930277 26.915092
-12.825612 -15.794579 26.252762
-12.682758 -13.782659 24.295786
-12.559233 -17.065565 26.670246
-9.6002779 -9.1345234 26.783129
-11.498054 -17.246811 27.332432
-9.6158171 -17.626366 24.000637
-9.7208366 -17.272585 23.902336
-10.945247 -7.0500002 25.910248
-9.7300529 -15.188678 26.90576
-11.871649 -19.450001 28.640884
-13.033885 -19.049999 23.620146
-12.447901 -19.074602 22.825874
-11.425222 -11.837204 27.348709
-12.106427 -14.260321 27.071667
-9.0508041 -16.873299 25.196926
-9.0844994 -9.9392042 25.817276
-12.783794 -14.782628 24.464294
-12.597478 -16.01379 24.177349
-11.519087 -17.863464 27.327267
-11.899772 -9.3310432 23.612253
-9.324441 -13.018275 24.375868
-12.681278 -10.166916 24.29357
-11.745941 -8.3231697 27.254761
-9.2598524 -14.271952 26.308533
-12.087427 -11.245359 23.71627
-11.617555 -8.9866524 23.500317
-9.408884 -15.633785 26.553341
-12.980164 -12.311239 25.783625
-10.589654 -15.851583 23.460272
-9.7005377 -15.139412 26.879837
-12.505476 -11.513355 26.732216
-11.799221 -7.0500002 25.718327
-9.7058668 -19.450001 28.193895
-9.12959 -17.706894 25.989695
-11.363069 -7.6620789 27.360544
-12.892174 -18.104282 24.704691
-12.248729 -19.049999 23.32172
-12.206408 -17.257193 27.002472
-11.889686 -8.1846828 27.192713
-13.920488 -19.087498 25.929682
-10.561476 -19.049999 22.550743
-11.234354 -12.016437 27.377907
-9.3815222 -11.276657 24.286369
-12.900421 -7.2264023 25.159334
-9.2784214 -14.732855 26.34338
-11.595593 -15.289203 23.493908
-12.346762 -11.57142 23.910805
-12.725639 -11.454264 26.437141
-9.240345 -10.812065 26.26899
-10.079929 -15.594234 27.147453
-9.0412397 -16.016115 25.45738
-10.617512 -8.311079 27.345676
-9.0484037 -7.3850565 25.581192
-9.0662451 -13.819236 25.719692
-11.214142 -19.049999 22.471811
-9.4829578 -14.000854 26.650623
-9.0497131 -10.671694 25.206875
-9.0684795 -13.111408 25.734215
-10.956711 -9.8351326 27.387419
-9.3869963 -12.841921 24.278183
-9.6447325 -11.188315 26.827633
-13.481552 -19.049999 24.321537
-10.878783 -19.302614 28.335762
-12.503463 -14.013428 24.065491
-12.934076 -13.655537 25.970074
-12.963341 -15.597565 25.861023
-8.2097979 -19.450001 26.831766
-9.6364994 -8.8515892 23.980251
-11.048397 -7.0500002 26.692711
-12.819937 -16.109358 26.264292
-12.333269 -10.718653 23.898947
-9.262332 -10.24716 26.313559
-12.747049 -7.2495327 26.233725
-13.628742 -19.348892 26.77219
-9.2371788 -13.393048 26.262569
-13.015546 -7.841866 25.495214
-13.136961 -19.049999 23.588665
-12.903287 -12.307983 26.064724
-9.628933 -7.0500002 24.968653
-9.4502287 -19.308529 27.880146
-12.506065 -9.3253727 26.731543
-10.312073 -7.7671633 23.545219
-9.1915874 -16.651621 24.638351
-9.5518532 -11.599526 24.068478
-10.647209 -16.847784 23.448427
-10.572722 -14.077999 27.335569
-10.430193 -13.271748 27.296659
-13.807188 -19.049999 24.573305
-9.6338854 -12.895672 23.982754
-11.98291 -7.4805994 23.655205
-11.082648 -13.410338 27.387823
-9.2110453 -18.117273 24.594147
-9.4427605 -13.020095 26.599548
-11.946175 -12.758208 27.164906
-12.716331 -9.2455425 24.347513
-9.067832 -8.8859901 25.069988
-13.012225 -14.901836 25.54567
-10.562854 -7.1558676 23.644493
-10.741895 -11.911818 27.367767
-12.673724 -13.618759 24.282272
-9.4304571 -16.957607 26.582767
-12.639513 -13.73948 24.233562
-9.8296938 -9.3566151 23.813545
-10.278384 -8.5966349 23.558292
-11.563196 -16.702326 27.31554
-12.363627 -8.278512 26.874374
-11.07752 -9.9007912 27.387936
-9.1700649 -17.86639 24.693653
-11.600739 -18.021183 23.495411
-12.280499 -14.821351 26.945358
-9.2285576 -15.573202 24.554907
-12.076494 -7.0500002 24.802761
-9.588047 -13.030229 26.770351
-10.296062 -18.273821 27.248569
-11.706198 -9.2355623 27.270052
-9.6847534 -13.148734 23.934067
-12.744728 -19.049999 27.119509
-9.3638887 -13.358692 24.312742
-9.6198177 -13.384018 23.996456
-10.434464 -18.2209 23.50206
-10.270486 -10.451059 27.238644
-13.002817 -14.260781 25.157059
-10.581771 -18.994213 23.462206
-9.2373495 -16.803974 24.537085
-11.333575 -7.0500002 25.53232
-10.18924 -15.175821 27.202972
-9.6658506 -16.228958 26.847843
-13.235148 -19.450001 27.494844
-9.3913841 -10.525444 24.271622
-11.623793 -11.62108 23.502134
-11.318297 -10.124149 23.43257
-13.670056 -19.049999 26.426926
-9.632863 -12.940263 26.816271
-11.315844 -14.623512 27.367809
-9.9752359 -19.049999 23.360168
-9.0999832 -16.579412 25.883018
-8.062376 -19.450001 24.487141
-9.1313457 -9.1067228 25.99572
-9.3039265 -8.0814266 24.410122
-9.056572 -11.102249 25.655695
-11.112541 -7.683239 27.387169
-9.2641649 -18.742704 24.482723
-12.868685 -18.615814 26.155828
-10.303352 -11.031759 27.251398
-10.500629 -12.125001 27.317242
-11.475946 -7.0500002 24.903429
-11.321278 -12.640232 23.433025
-11.775909 -19.450001 28.644306
-10.499493 -7.2723198 23.541542
-8.3784475 -19.049999 24.974545
-10.375008 -11.954054 23.52207
-11.858164 -13.689181 27.207634
-11.600115 -16.607843 27.304771
-9.044302 -12.729499 25.523792
-9.3412447 -12.617905 26.451832
-11.695958 -16.631023 23.52647
-11.378423 -9.1529398 23.441999
-9.7074099 -18.638803 23.914131
-12.533932 -12.994481 24.10022
-12.534568 -19.049999 26.935171
-11.422482 -8.6250153 23.450748
-10.668612 -17.390612 27.355824
-10.811302 -9.4368067 23.423431
-10.070791 -11.918808 27.142433
-11.66157 -17.667725 27.2852
-9.9154854 -8.8596792 23.752436
-12.90094 -13.13131 26.071638
-9.3899384 -9.9251528 24.273783
-12.644805 -11.383698 24.240786
-12.920053 -19.450001 27.849953
-11.791178 -8.6940441 27.237125
-9.947403 -19.049999 23.061689
-13.01028 -18.126451 25.574501
-11.986135 -19.049999 23.522488
-9.7021465 -9.7026958 23.918751
-10.513527 -16.691988 27.321003
-9.2176285 -14.010256 26.22081
-9.8979797 -10.243584 23.764128
-9.0954609 -10.125099 24.935455
-12.818583 -17.280689 24.532959
-12.259848 -19.049999 27.638283
-9.2903996 -15.202302 26.365215
-9.2570438 -12.958977 24.497158
-9.9169321 -16.717964 23.751469
-10.987936 -14.360582 23.4119
-12.272012 -7.4834461 26.952164
-7.8382854 -19.450001 24.816513
-9.0669947 -8.7055588 25.724571
-13.763636 -19.352867 24.322319
-12.618865 -17.959526 26.594612
-10.727205 -12.44916 27.365509
-12.52614 -16.940567 24.091339
-9.0410557 -16.990963 25.351093
-12.047503 -17.178017 27.107941
-8.1141777 -19.360449 25.783949
-11.675929 -7.6310644 23.51967
-11.936628 -19.236019 28.195915
-9.9623032 -12.25167 23.721287
-12.112522 -17.632875 23.732409
-11.017153 -19.450001 28.596439
-9.0839481 -18.25049 24.985493
-9.0483236 -14.481403 25.580454
-11.60436 -13.939662 23.496468
-11.285458 -19.450001 22.187851
-13.676888 -19.450001 27.056992
-11.005029 -7.0500002 24.882309
-9.3347445 -10.526102 26.441118
-13.012165 -10.104459 25.253416
-12.806284 -18.973009 26.292027
-9.7035856 -18.87075 26.882511
-10.256449 -14.739964 23.567406
-12.994392 -10.109143 25.702549
-11.412241 -17.042442 23.448715
-10.631002 -11.178941 27.348354
-9.7217684 -8.5375576 23.90152
-9.0973864 -8.9941902 25.87241
-10.665864 -17.750355 23.444723
-8.9765024 -19.316643 23.295818
-12.510252 -14.93862 26.726772
-9.9739628 -15.047016 23.714214
-12.505068 -15.827102 26.732681
-9.2544403 -14.210782 24.502438
-9.0438833 -7.7137113 25.517389
-9.9717894 -18.529463 23.715532
-7.9398642 -19.450001 25.084682
-9.0416203 -11.991719 25.32513
-9.0403624 -15.011005 25.417099
-10.424368 -11.67907 27.294682
-10.76866 -10.842239 27.371883
-12.874083 -8.116066 26.141922
-10.869549 -18.645563 27.382317
-12.590446 -19.413202 22.909386
-12.538321 -19.450001 22.357872
-13.540114 -19.049999 25.91227
-9.2749624 -8.3371515 24.462925
-13.195827 -19.049999 24.324066
-11.083496 -17.355253 23.412193
-10.906599 -11.874304 23.415245
-10.361235 -11.534918 23.526745
-12.808467 -8.2487669 26.28759
-7.9974251 -19.450001 25.297825
-10.702852 -7.0500002 26.979557
-12.97084 -18.957233 24.9697
-11.979223 -9.6792002 23.653179
-9.5429831 -8.9561281 24.078583
-12.438629 -13.445659 26.803028
-10.691038 -7.2426691 23.52717
-10.846906 -11.107302 23.419548
-12.775046 -7.5135374 24.448366
-9.0418596 -7.5733995 25.485912
-10.282275 -7.5572915 27.243216
-10.976951 -7.0500002 26.977299
-12.807733 -17.973112 26.289083
-11.231022 -9.5942307 27.378269
-11.174523 -8.4008579 23.416773
-8.589962 -19.049999 26.963974
-12.729066 -11.395777 24.368507
-12.993615 -10.141236 25.7076
-9.2713404 -15.892441 24.469532
-11.596832 -13.240728 27.305729
-9.2447968 -8.9358358 26.278013
-12.220207 -9.8728485 23.807642
-9.4347734 -13.108754 26.588652
-9.2082119 -19.450001 28.453737
-9.489521 -10.547173 26.658804
-9.2323608 -7.6990118 26.252804
-11.940351 -9.3838005 27.167772
-9.5785322 -16.972462 26.760408
-11.955412 -15.682919 23.640102
-9.3042555 -7.4335251 24.409519
-12.881786 -9.0288057 26.12207
-7.4745169 -19.450001 25.299337
-9.3530483 -8.6566067 26.471046
-10.607024 -8.6754723 27.343594
-9.5877495 -19.450001 28.025726
-12.538321 -10.731114 26.694777
-12.142717 -16.245239 23.752596
-12.263976 -13.582508 26.958611
-11.818114 -10.739254 23.574734
-12.789573 -8.9825363 26.325186
-11.299215 -19.049999 28.198835
-9.0473118 -9.4247284 25.23023
-12.622286 -14.488733 24.210056
-13.013729 -13.715343 25.52282
-13.00974 -15.216993 25.220551
-12.383009 -11.390596 23.943466
-9.63239 -19.145721 27.98637
-10.397854 -7.0500002 26.110083
-10.645592 -19.049999 27.794373
-10.233923 -10.383951 27.222668
-10.522327 -14.07782 27.323196
-10.251308 -19.450001 22.324188
-9.0583172 -19.34333 23.218742
-11.751485 -9.7545567 27.252605
-11.80828 -7.8528614 23.570406
-13.00201 -14.909256 25.149664
-9.921977 -17.699549 27.051903
-10.569137 -8.4281321 23.465309
-10.33457 -17.328533 23.536486
-12.017016 -19.049999 22.776371
-9.33074 -14.131064 26.434517
-10.92815 -7.1165013 27.173801
-9.0463982 -12.649441 25.244194
-8.4662428 -19.049999 25.813515
-10.668356 -18.525974 27.355774
-12.724047 -14.219829 26.439768
-12.995536 -13.636503 25.104883
-9.042634 -10.420628 25.498318
-9.0719643 -17.807056 25.754269
-7.9970369 -19.450001 26.519157
-9.0488319 -9.7229242 25.214907
-9.4757538 -12.53397 26.641644
-9.4582644 -9.9157906 26.619843
-9.4214134 -19.152359 22.939062
