# .PCD v0.7 - Point Cloud Data file format
VERSION 0.7
FIELDS x y z
SIZE 4 4 4
TYPE F F F
COUNT 1 1 1
WIDTH 659
HEIGHT 1
VIEWPOINT 0 0 0 1 0 0 0
POINTS 659
DATA ascii
-8.4351397 -19.450001 23.31945
-7.8983116 -19.450001 24.927666
-9.8654814 -21.494366 22.083099
-12.455938 -20.321404 28.7169
-10.50054 -19.450001 26.374454
-10.833373 -19.981152 22.083099
-10.998769 -20.176582 22.083099
-13.891566 -21.338013 23.724291
-11.453188 -19.450001 27.628084
-11.873405 -21.975 26.224277
-10.643105 -19.450001 23.8022
-7.9298716 -20.239799 26.665949
-13.556003 -21.974998 27.227608
-8.5980015 -19.848904 22.976818
-12.006565 -19.450001 26.260818
-13.533829 -21.495312 23.104687
-10.766592 -19.450001 27.851229
-8.8239889 -19.450001 27.940748
-10.472968 -21.301538 22.083099
-9.8213015 -21.641104 22.083099
-9.4675007 -21.975 22.566689
-13.668304 -19.450001 26.660263
-9.5966883 -19.450001 26.117672
-10.393969 -19.450001 27.24577
-11.900261 -21.975002 27.379814
-8.1017361 -19.450001 23.899748
-11.15667 -19.64852 22.083099
-14.521613 -20.041702 25.984394
-9.0789604 -21.975002 27.198322
-12.509912 -21.975 25.051947
-12.57347 -21.975 27.540125
-13.4207 -21.975 23.713026
-10.932871 -21.975 27.823277
-11.655528 -21.974998 27.285656
-9.5682869 -21.974998 27.937668
-13.743708 -21.728168 27.331825
-11.891647 -19.450001 24.343353
-12.568823 -19.450001 24.517887
-10.42795 -19.546955 28.716898
-8.360321 -20.463648 27.41152
-13.183243 -19.450001 24.466938
-7.3415389 -21.063639 25.646933
-9.1717482 -19.450001 23.710117
-8.4809656 -21.975 24.364998
-8.88801 -21.814949 22.577744
-8.51266 -21.975 24.024462
-12.53392 -19.450001 23.57909
-11.931774 -21.975 23.267818
-12.82015 -21.975002 26.376503
-7.3144083 -19.873085 25.59992
-11.130306 -21.974998 23.31728
-10.688106 -19.450001 24.735859
-9.720891 -20.816263 22.083099
-10.691894 -21.411955 22.083099
-8.4147873 -20.347858 23.294147
-12.222166 -21.975 23.439779
-14.055069 -20.216827 26.792484
-13.599809 -20.598156 23.218966
-8.8746214 -21.011852 22.497679
-11.195427 -21.251268 28.7169
-10.406458 -19.450001 25.805241
-9.0315828 -20.310774 28.574175
-11.257685 -19.450001 25.974688
-8.4727726 -21.66699 23.193693
-10.322172 -21.065174 22.083099
-10.177825 -19.450001 23.662399
-8.8530951 -21.975002 24.952827
-10.735223 -19.450001 28.567869
-13.510363 -21.586304 23.064043
-11.223492 -20.153812 22.083099
-10.203374 -21.975 23.095264
-9.565073 -21.975 26.836727
-14.178376 -19.450001 24.892559
-8.5770617 -20.238806 27.786921
-8.3930216 -20.06192 23.331852
-13.567377 -19.450001 25.350611
-9.8558969 -21.975 26.149769
-12.2827 -21.846004 22.144863
-9.8296843 -20.832352 28.7169
-12.521406 -19.450001 27.457729
-9.526535 -19.450001 23.154657
-10.47164 -20.945269 22.083099
-12.992528 -19.450001 28.128996
-9.8241444 -19.450001 24.226656
-10.902977 -19.450001 25.815437
-9.0927334 -21.932476 28.119974
-12.239998 -21.975 28.068848
-12.774674 -19.450001 26.613064
-13.490671 -21.462318 23.029938
-8.4380608 -21.332987 23.253822
-8.3198404 -20.229828 23.458603
-12.484226 -21.975 24.868824
-11.000504 -21.975 27.616301
-8.3396263 -21.974998 24.725235
-10.459724 -21.17399 28.7169
-13.03731 -20.043301 22.244711
-10.096636 -21.975 27.03499
-13.04746 -21.677626 28.537764
-10.987017 -19.450001 28.611675
-11.181366 -19.450001 26.479141
-11.47254 -19.450001 24.09853
-11.800322 -21.596462 22.083099
-12.811997 -19.896902 22.083099
-14.742623 -20.517096 25.198393
-9.8886929 -21.975 26.510622
-8.6006117 -20.254063 22.972288
-12.191583 -21.975 23.283316
-10.076878 -21.974998 27.526028
-7.7416334 -21.276022 24.460075
-9.86376 -21.974998 22.613157
-10.611192 -21.975 22.869999
-13.250243 -20.928736 28.186508
-9.8784313 -20.431026 28.7169
-12.781961 -19.450001 27.982979
-9.1924629 -21.975002 27.984198
-8.1369152 -21.975 26.221527
-11.719 -19.450001 24.525278
-8.8802414 -19.450001 25.941898
-8.9867468 -19.450001 24.077492
-12.520618 -21.975 23.608892
-11.554577 -19.450001 23.252621
-7.4677401 -20.943027 24.934479
-13.983412 -19.450001 24.689684
-8.140501 -19.989555 23.769232
-8.7845917 -19.449999 28.136383
-13.074355 -21.974998 23.632801
-12.63965 -19.450001 28.191616
-7.9149904 -21.193911 24.159809
-11.111952 -21.40588 22.083099
-12.384846 -21.975 27.570072
-13.240219 -19.450001 25.597225
-13.523802 -21.398602 27.712704
-8.0167608 -21.710224 23.98353
-13.183273 -21.974998 26.495426
-7.5471449 -20.076168 24.796963
-11.990554 -19.450001 28.222883
-8.4736652 -21.975 23.404938
-13.656852 -20.048141 23.317783
-8.6295023 -20.667446 27.877758
-10.465797 -19.450001 27.250629
-13.363412 -20.999269 27.990498
-13.248569 -19.450001 25.095352
-9.0862923 -21.488234 22.131071
-8.6481228 -21.762358 27.910021
-11.102573 -21.531796 28.7169
-9.620079 -21.975002 24.404093
-14.098993 -21.975002 25.054688
-13.09325 -21.975 26.193523
-9.6343689 -21.974998 24.579552
-9.6911526 -21.975 22.8155
-10.959283 -19.450001 26.892559
-8.0806942 -21.974998 24.175299
-12.874724 -21.974998 24.287018
-11.054798 -19.450001 25.580593
-14.067695 -19.450001 25.073122
-8.3497849 -21.975 25.378193
-9.6889181 -21.975 25.009649
-13.408778 -19.450001 24.611221
-9.8652563 -21.975 25.915359
-11.821484 -19.450001 25.899609
-11.334415 -19.450001 23.640732
-11.966528 -21.975 23.671041
-11.611768 -21.975 22.374966
-8.4181843 -20.760811 23.288258
-8.3216162 -21.384754 23.455507
-8.9694595 -21.869942 22.636124
-12.880871 -21.975 24.34766
-13.344387 -21.975 24.689716
-8.4858284 -19.68075 27.628891
-12.795547 -21.975 25.687202
-13.286517 -21.213863 28.123688
-12.083387 -21.975 25.651529
-12.728113 -19.450001 26.086819
-7.9329033 -19.908497 24.128807
-13.527374 -21.230652 27.706512
-13.350022 -19.450003 27.625622
-9.623744 -21.975 25.601116
-13.20673 -21.521328 22.538151
-9.9797211 -21.974998 27.212641
-11.367744 -19.450001 23.960003
-14.66066 -19.661432 25.056456
-8.8835335 -19.926506 22.482254
-9.1157284 -21.975 27.704657
-10.61525 -19.450001 23.832649
-8.6621599 -19.450001 23.369154
-8.5874128 -20.100641 27.804848
-13.942633 -19.604979 26.987211
-9.2543516 -19.450001 23.612129
-12.411013 -21.975002 24.93169
-13.168951 -19.690901 28.327276
-12.442137 -19.450001 23.956367
-8.8500223 -21.80389 28.217421
-8.5994902 -21.508108 27.825787
-9.982357 -20.110395 28.7169
-10.430095 -19.450001 25.271399
-13.86408 -21.753563 27.123333
-11.274712 -19.450001 27.22649
-12.583117 -19.450001 25.146124
-13.41242 -21.104233 27.905617
-10.62813 -21.975 25.148722
-10.589312 -20.105854 22.083099
-11.664724 -19.869631 22.083099
-7.959054 -21.427919 26.716515
-12.929276 -19.450001 25.927876
-14.623593 -21.486124 24.992191
-10.153542 -21.975002 25.974745
-7.8951287 -21.171696 24.194214
-8.1326685 -20.002094 27.0172
-9.0003929 -21.975 26.296513
-8.3580627 -19.450001 25.672112
-9.9322062 -21.887432 28.635605
-12.607472 -19.909683 28.7169
-11.82755 -21.975 24.981485
-8.2938519 -21.064669 27.296398
-12.214441 -21.975 26.241871
-10.510961 -21.975 28.132439
-12.133316 -20.617771 22.083099
-12.789662 -19.595095 22.083099
-9.0514488 -19.450001 27.029974
-14.678032 -19.914698 25.713463
-13.750391 -20.789724 27.320221
-14.100671 -21.932261 26.70932
-7.9559879 -20.106134 26.711182
-12.853334 -21.974998 27.419029
-9.6572857 -21.370474 28.7169
-12.32852 -21.974998 27.4793
-11.388524 -20.330378 22.083099
-12.332783 -21.975 25.206017
-7.8537035 -20.249979 26.534019
-13.781049 -21.975002 27.15275
-12.330355 -21.975 24.692133
-7.6447396 -19.458984 26.172068
-10.525208 -21.975 22.695211
-9.7315865 -21.149637 28.7169
-14.013019 -20.884905 26.865339
-8.7020397 -19.450001 26.176559
-14.068924 -21.412104 24.031477
-10.149704 -21.975 22.694405
-14.489729 -20.789204 24.760353
-12.65672 -19.450001 26.94313
-8.3971672 -19.450001 24.98035
-10.601535 -19.450001 26.915123
-9.241848 -21.18799 28.7169
-12.747053 -21.197117 22.083099
-11.742088 -21.975002 22.835588
-13.850079 -19.450001 24.254333
-11.855768 -21.703535 28.7169
-14.160063 -21.92601 24.209703
-8.8240385 -19.989719 22.585302
-8.1355791 -20.560909 27.022253
-14.698696 -21.737402 25.619051
-7.6321712 -19.450001 25.031897
-14.367247 -21.02416 26.251799
-12.100389 -21.974998 23.403439
-10.916265 -20.687836 28.7169
-14.295238 -19.682438 26.37648
-10.869748 -21.975 24.56052
-10.218093 -19.450001 24.490608
-13.039042 -21.975 26.08077
-13.595198 -20.786085 27.589027
-12.330155 -19.450001 28.67601
-9.0921774 -19.450001 22.962719
-13.827185 -20.2122 27.187193
-9.3184719 -21.975 23.900833
-8.9173775 -19.933786 22.423635
-10.583466 -19.450001 24.359737
-7.634798 -20.0473 26.15486
-13.267495 -21.975002 27.087978
-12.698021 -21.789852 22.226168
-12.315977 -19.450001 26.486465
-14.300407 -19.450001 24.727402
-11.855364 -20.476704 22.083099
-8.350934 -20.392605 27.395258
-10.109739 -21.975 25.124716
-10.489245 -19.450001 28.039848
-10.837022 -21.975 28.154659
-9.3299141 -21.638704 28.7169
-13.119938 -19.450001 27.887566
-8.5767136 -19.450001 25.967686
-9.2204914 -19.478504 22.083099
-12.254172 -21.186365 28.7169
-13.822993 -21.975 24.413717
-13.725672 -21.975 25.221573
-8.9552937 -21.975 25.452248
-14.263733 -21.333981 24.368896
-12.06449 -21.975 23.11261
-13.588837 -21.975 27.074543
-11.043766 -20.353558 28.7169
-9.2370787 -19.450001 25.241447
-13.260145 -21.926458 22.90247
-13.382015 -21.693989 22.841742
-12.938931 -21.975 25.152029
-14.436703 -21.891047 25.548277
-8.7346926 -19.887978 28.059942
-13.184659 -20.36055 22.499922
-9.3070831 -19.450001 27.350101
-13.591163 -19.450001 23.446989
-11.799836 -21.975 27.881208
-11.601677 -21.241428 28.7169
-12.864855 -20.653725 28.7169
-9.0136032 -21.468939 28.543034
-9.0918293 -21.975 25.242916
-13.715834 -19.450001 27.111732
-8.4116535 -19.450001 23.819332
-14.372138 -21.479448 24.556654
-13.702376 -19.450001 26.30479
-13.160618 -20.773779 28.34174
-9.7246161 -21.975 27.642811
-10.371685 -21.975 24.578743
-7.6643429 -20.802414 24.593954
-7.7753019 -21.972458 25.079941
-13.749552 -21.1954 27.321688
-9.3798018 -19.450001 24.037563
-14.195203 -19.860184 26.549755
-9.1947041 -21.975 23.634552
-11.931498 -21.641933 22.083099
-10.082472 -20.762405 28.7169
-12.531905 -19.450001 23.557898
-13.221514 -21.450373 28.236286
-7.437386 -21.578424 25.812956
-14.124881 -21.81498 26.671616
-10.559505 -19.450001 26.205738
-8.6857262 -20.801422 22.824856
-12.109588 -20.347754 28.7169
-9.6882982 -19.450001 24.292246
-12.772613 -20.440924 28.7169
-8.0911217 -21.974998 25.59338
-12.337852 -19.819675 22.083099
-9.0572147 -21.975 27.817251
-12.256168 -19.450001 22.645758
-8.7436123 -21.87022 27.979458
-12.078832 -19.450001 22.317219
-13.230081 -21.974998 27.141005
-14.02757 -20.349243 23.959879
-9.0142422 -19.450001 24.746487
-11.665586 -21.759727 22.083099
-11.600856 -21.975 23.537813
-13.065852 -21.725849 22.315624
-14.249378 -19.450001 25.577604
-10.085846 -21.975002 27.738689
-12.394673 -21.102303 22.083099
-12.653334 -19.450001 23.136391
-12.604436 -21.975 23.746843
-9.3230963 -19.450001 23.599951
-10.797806 -21.038406 22.083099
-12.618958 -20.816212 22.083099
-11.598427 -19.450001 24.532776
-7.5198374 -21.820911 25.002022
-8.6563177 -20.149128 22.875805
-11.505719 -21.975 24.072731
-11.711105 -21.975 22.299404
-9.5371819 -19.450001 22.17638
-11.485645 -19.450001 24.540924
-8.9026814 -19.450001 28.168684
-7.8220663 -21.464382 26.479244
-13.6641 -19.450001 26.22579
-11.691084 -21.975 28.554592
-8.7549992 -21.621035 28.095133
-10.799761 -20.078983 22.083099
-8.1933002 -20.500145 23.677774
-7.9885426 -21.365406 26.767588
-8.9214125 -21.975 27.89282
-9.0445213 -19.500919 22.203421
-13.788531 -21.975 24.792671
-8.8808842 -21.975 23.502808
-9.5059395 -20.82918 22.083099
-8.855998 -21.975 23.266407
-12.304673 -21.975 25.196945
-8.0489206 -20.388903 23.927849
-8.1745949 -19.450001 24.45776
-12.498371 -19.450001 27.207989
-12.954676 -20.756319 22.101589
-9.2365236 -19.687771 22.083099
-13.428464 -21.975002 26.072308
-11.813251 -20.939182 28.7169
-7.99575 -20.213598 24.019949
-13.980594 -19.453188 23.878544
-8.8845453 -21.760403 22.480492
-10.325124 -21.974998 27.685452
-12.959723 -19.450001 23.254492
-13.138824 -21.975 24.339182
-14.511658 -21.438583 24.798309
-10.649452 -20.514706 22.083099
-10.053523 -19.450001 26.498934
-13.722382 -21.029299 23.431261
-12.135427 -20.909615 22.083099
-14.317101 -19.450001 26.018429
-12.784571 -21.975 27.313721
-9.2558174 -21.262543 28.7169
-9.4234638 -21.975 25.233942
-9.8048983 -19.450001 24.915726
-13.494787 -20.620346 27.762939
-10.184187 -19.450001 25.34581
-10.095599 -21.975 25.296093
-11.152458 -21.391972 22.083099
-9.8652763 -19.450001 24.544136
-9.1003323 -21.975 26.291958
-14.499665 -21.709761 24.777533
-14.063906 -19.795538 24.022835
-9.5830736 -21.904022 22.335812
-12.694689 -21.975 26.419704
-12.041172 -19.450001 27.656364
-13.611897 -20.054897 27.560081
-14.187255 -20.968332 26.563553
-8.8435802 -19.886734 22.551458
-10.771705 -19.450001 27.365782
-8.8781242 -19.450001 22.895081
-8.2665157 -21.012527 27.24905
-7.5229058 -21.474276 25.961081
-8.9389896 -21.975 25.720619
-11.116993 -19.450001 25.543983
-10.958274 -19.450001 26.848446
-14.133892 -21.345747 26.655993
-11.281895 -21.975 23.026451
-9.233799 -21.975 23.982546
-14.347115 -21.120111 26.286671
-9.858984 -21.975 24.064304
-13.024465 -21.55312 22.222466
-10.319598 -21.975 22.686674
-8.7341213 -19.450001 26.306957
-7.836133 -21.971701 26.111633
-8.675683 -21.065857 22.842247
-12.934206 -21.975 24.42968
-14.092209 -20.263062 24.071842
-12.011142 -19.450001 23.900288
-9.3707952 -19.450001 28.483181
-12.045211 -21.974998 23.045437
-10.733869 -21.944309 22.094477
-13.488398 -20.972427 27.774017
-9.1118145 -21.469418 28.713131
-12.473428 -19.450001 24.104885
-13.38937 -19.450001 24.842558
-12.503808 -19.450001 25.051449
-11.610395 -21.211533 28.7169
-11.08903 -21.975002 25.780842
-14.278346 -20.047169 24.394249
-11.550533 -20.897087 22.083099
-8.5159845 -19.826893 27.681124
-8.1815243 -20.790741 23.698164
-12.951035 -21.437557 22.095284
-13.242289 -21.134975 28.200293
-9.5744772 -20.584023 22.083099
-13.678684 -19.450001 26.702904
-10.283861 -21.975 28.121742
-12.966085 -21.975 27.464062
-12.582262 -21.974998 24.988245
-11.439436 -21.975 28.628727
-10.872291 -19.450001 27.819778
-7.8310671 -19.450001 24.95422
-8.5495281 -21.975 26.895397
-8.9458246 -21.241444 22.374355
-11.527819 -20.358959 22.083099
-9.502017 -19.450001 26.492142
-10.310046 -21.974998 27.264313
-10.379481 -21.975 27.67659
-12.849424 -19.450001 25.52857
-11.85771 -20.755863 22.083099
-8.564683 -21.975 24.681566
-13.728483 -19.450001 27.071098
-9.77075 -21.975 27.792946
-14.70854 -20.496401 25.13936
-11.157738 -19.450001 27.405418
-9.0341101 -19.450001 25.848856
-10.541061 -21.975 25.877344
-12.477603 -21.975 22.811817
-8.185626 -21.72118 27.108953
-10.006479 -19.450001 24.435617
-8.1272202 -19.450001 24.241972
-14.834183 -20.399052 25.442989
-14.011257 -21.975 24.480768
-10.276282 -19.450001 26.146214
-9.9478865 -19.450001 22.650585
-12.575148 -19.450001 22.788092
-14.666917 -19.882748 25.732716
-12.757502 -21.975 25.606464
-9.3434629 -21.975 23.983713
-12.912947 -20.68556 28.7169
-9.1621494 -20.25108 22.083099
-7.5524111 -19.657085 24.787848
-8.0731649 -19.656586 23.88587
-11.883412 -19.450001 28.404955
-13.157522 -21.974998 26.257189
-14.420172 -19.601238 26.160084
-11.569679 -19.450001 24.978043
-9.9689426 -21.102789 28.7169
-13.394688 -20.316494 27.93631
-10.399135 -21.975002 27.219055
-8.1337957 -21.968508 26.933846
-9.2784758 -19.640593 28.7169
-9.9448338 -19.450001 26.779137
-9.4724379 -20.869936 28.7169
-11.042473 -21.975 28.551956
-9.6090689 -19.450001 27.744696
-14.572664 -20.964151 24.903996
-13.23744 -21.975 24.105709
-11.98442 -21.975 27.490791
-14.186087 -20.404972 24.234438
-12.179163 -21.597675 22.083099
-10.498736 -20.928553 22.083099
-11.147141 -19.450001 27.410547
-12.154156 -21.975 25.467106
-8.5713778 -19.648653 23.022934
-7.2676511 -20.108257 25.518938
-14.388952 -20.70929 24.585804
-10.654812 -21.074566 28.7169
-12.697322 -20.9939 28.7169
-14.72883 -21.186768 25.625479
-13.629107 -19.935135 23.269728
-12.748956 -19.450001 26.107187
-10.718103 -20.592701 22.083099
-10.341547 -20.267899 22.083099
-10.495628 -19.5714 28.716898
-13.481546 -20.33968 23.014137
-9.657443 -19.450001 24.470303
-12.21634 -19.450001 22.378796
-10.387911 -19.450001 24.337372
-12.216543 -21.975 28.197464
-8.9713354 -19.450001 27.317211
-11.194466 -19.450001 26.385742
-9.4775076 -21.975 24.320175
-9.3918438 -19.450001 24.839756
-13.986751 -19.450001 23.902336
-11.729887 -19.450001 23.640572
-12.036151 -21.226688 28.7169
-11.780301 -20.043243 28.7169
-10.745224 -20.160618 28.7169
-12.208918 -21.975 25.027306
-9.3755245 -19.450001 24.806288
-10.112738 -19.450001 26.586164
-14.530252 -19.869028 24.830572
-10.95435 -19.450001 24.158623
-12.51919 -21.802252 22.162003
-11.023436 -21.266663 22.083099
-10.670928 -21.479593 28.7169
-8.9836445 -20.329052 22.308853
-7.4523683 -21.794498 25.471388
-11.725746 -20.166656 28.7169
-11.219642 -21.975 22.686609
-13.741516 -19.786835 27.335564
-10.208961 -19.450001 23.390724
-11.922715 -21.960579 28.566156
-13.317759 -20.355446 28.069555
-12.101039 -19.450001 25.930786
-9.266716 -19.505363 22.083099
-9.3752193 -21.856785 28.450033
-8.2416573 -19.474258 27.205967
-9.4319544 -21.443623 22.083099
-11.391335 -21.975 23.062906
-8.8415318 -21.975 24.15613
-13.109833 -21.163652 22.370321
-14.743341 -21.291077 25.199621
-14.648478 -20.457108 25.035326
-10.734159 -21.975 28.400803
-9.6067572 -21.975 27.23579
-9.648735 -21.975 26.227562
-9.4093227 -21.930511 28.323149
-13.625108 -21.854424 27.537235
-12.44195 -21.975002 26.330894
-8.4290829 -19.450001 27.147062
-14.496066 -21.852745 25.141548
-12.053573 -20.470886 28.7169
-12.177266 -21.975 23.170584
-13.975699 -21.975 26.441307
-13.620311 -21.975002 25.514076
-11.86385 -19.450001 26.405708
-10.23459 -21.322018 22.083099
-12.071114 -19.450001 24.292755
-11.932083 -19.727015 22.083099
-13.132669 -21.975 27.747417
-10.729026 -21.975002 27.031914
-10.964651 -19.450001 23.75872
-8.5142326 -21.329082 23.121887
-9.0922785 -21.638905 22.120701
-12.955004 -19.681425 28.697849
-10.399867 -21.975002 27.920321
-13.552057 -21.767899 23.136261
-9.381917 -20.387871 22.083099
-10.718828 -19.450001 28.051592
-7.7933412 -21.724897 24.370504
-13.154606 -19.989704 28.352137
-9.7906179 -20.720564 28.7169
-12.735991 -19.450001 22.752314
-7.4957938 -21.187679 25.914116
-10.50262 -21.975 26.501827
-12.837196 -21.435957 22.083101
-10.29245 -21.975 27.652929
-8.5134468 -21.975 24.164951
-13.119246 -21.975002 23.721951
-8.5165873 -21.975 26.796406
-8.7750874 -19.450001 27.78834
-10.530752 -20.075562 28.7169
-8.7288113 -21.589823 28.049776
-11.69253 -19.450001 23.302193
-9.685873 -21.975 26.116238
-14.346399 -20.595306 24.512102
-9.7271328 -19.630583 22.083099
-12.770101 -19.450001 23.396446
-11.513371 -19.450001 24.020779
-14.518639 -21.833708 25.772177
-11.240208 -20.320389 28.7169
-13.751981 -21.975 25.729246
-14.591168 -20.306046 25.86393
-11.389001 -21.975002 23.797852
-7.6715236 -19.450001 25.522987
-14.15964 -19.450001 25.752426
-13.764776 -20.480299 27.295298
-14.720394 -21.723942 25.159906
-11.008069 -21.975 25.497459
-12.873119 -21.975 25.100765
-13.691265 -19.450001 25.562576
-9.5932531 -21.975 26.906364
-11.288105 -21.975 28.005421
-13.97613 -19.450001 24.672808
-12.934349 -21.777994 22.338224
-9.5506802 -19.450001 28.248482
-10.34635 -21.974998 25.926281
-8.3775501 -19.85075 27.441347
-14.328195 -19.450001 24.655643
-10.591749 -20.663568 28.7169
-14.522275 -21.84325 25.423098
-10.038509 -19.450001 23.187107
-8.4032717 -19.450001 23.519653
-14.160257 -19.742716 24.189724
-7.3667693 -21.519226 25.690643
-12.982663 -21.764299 22.340092
-12.225743 -21.883476 28.607653
-13.99701 -19.450001 26.756264
-13.940287 -19.450001 26.376369
-10.830568 -19.450001 28.656712
-14.035156 -21.055996 23.973
-10.776565 -21.975 26.05673
-11.608625 -21.826424 22.083099
-9.8339128 -21.975 26.137493
-13.488076 -21.975 25.296263
-13.408611 -19.896336 27.91218
-13.936792 -19.977829 23.80266
-8.6185856 -19.450001 22.942802
-13.632681 -19.450001 23.292664
-9.862011 -19.450001 26.768492
-8.777421 -21.975 23.380251
-8.1637211 -19.450001 24.026911
-7.5037384 -19.58535 25.927845
-14.033797 -21.136902 23.97064
-7.5287457 -20.513868 25.971178
-13.618278 -21.975 25.835375
-12.08613 -19.450001 25.967138
-13.90468 -19.450001 25.108788
-9.3538685 -19.450001 22.115091
-9.9905682 -21.975 26.688858
-12.833608 -19.449999 28.331264
-7.2695317 -19.855858 25.277809
-11.304235 -19.912025 28.7169
-14.096684 -20.637995 26.720417
-13.681355 -20.589172 27.439787
-10.582644 -19.450001 22.461147
-11.192156 -21.975 24.036776
-13.34663 -20.622517 22.780457
-8.274828 -21.975 25.17675
-8.4622192 -21.477861 27.588024
