# .PCD v0.7 - Point Cloud Data file format
VERSION 0.7
FIELDS x y z
SIZE 4 4 4
TYPE F F F
COUNT 1 1 1
WIDTH 432
HEIGHT 1
VIEWPOINT 0 0 0 1 0 0 0
POINTS 432
DATA ascii
37.687149 -12.711278 -3.0662427
37.787163 -12.930336 -3.0908015
35.735493 -12.499842 1.5406183
35.772118 -6.4946756 -1.5121218
37.368385 -6.0959997 1.2372752
41.255871 -6.8684106 1.5951334
36.00161 -12.950739 -1.9447963
39.981831 -6.0960002 1.9788164
36.709507 -9.6223717 2.6139748
38.619209 -6.0960002 -2.5382798
35.392921 -9.4294271 0.59571338
40.71283 -7.6392798 -2.2863238
35.972095 -15.399463 -1.9056699
40.057045 -14.257984 -2.7723093
40.391121 -15.299569 2.5574567
38.496906 -15.407434 3.1746948
40.067703 -10.947767 2.7664652
40.449085 -13.174205 2.5145752
39.568344 -6.1962414 -2.6253011
35.365303 -10.370957 -0.42937189
41.570309 -13.398552 0.84708971
40.01791 -13.23635 -2.7937689
41.222645 -7.2016954 -1.6498559
35.813614 -13.751139 1.6738379
35.492825 -8.5661039 0.98421711
41.682957 -11.871077 0.1359095
35.906586 -12.839886 -1.8158586
40.385571 -7.7735109 -2.561528
36.203682 -7.3130903 2.1801813
36.497211 -6.3586292 2.2141788
41.54702 -9.1302814 -0.92690021
41.015308 -8.6382952 -1.950878
36.701965 -11.637012 -2.6089356
39.424755 -14.116611 3.0399532
40.1353 -6.0960002 -0.58463848
41.214314 -11.209504 1.6635762
35.645081 -13.883293 1.3655229
38.669918 -10.034252 3.1706345
35.777374 -7.8690071 1.6141374
39.685921 -12.89717 -2.9488657
36.764015 -9.6745434 2.6503913
41.467354 -10.928912 1.1554646
36.762112 -11.973791 -2.6491175
39.029339 -7.6177311 -3.1318202
36.685833 -15.504908 2.5978994
35.92387 -15.170562 -1.8398914
35.403778 -11.32328 -0.65034962
38.563465 -11.755126 3.1738536
36.892273 -15.464343 2.7307379
41.679409 -8.0080462 0.19157079
37.178745 -15.37779 -2.8817742
40.333015 -9.7832222 2.6000667
37.013023 -6.0960007 2.18208
37.010994 -7.8956532 -2.7977057
40.243797 -6.1152282 2.1341555
40.665756 -14.347252 -2.3314147
39.159981 -14.875088 -3.1073189
38.574379 -6.0960002 -1.605139
41.66502 -13.815628 0.35680285
36.989765 -6.9655242 2.7860556
37.206165 -6.8661022 -2.8938375
41.66605 -9.1729794 -0.34738898
36.439098 -8.3205957 2.4050775
37.427429 -10.776357 -2.9843459
40.639542 -12.705064 -2.3551965
36.179783 -11.464262 2.1552198
37.783821 -6.0960007 -2.4454837
38.816223 -12.393253 -3.1597857
41.132439 -12.247483 -1.7900467
35.46809 -12.143457 0.9041971
39.825798 -6.0960002 1.6427057
37.558064 -14.291842 -3.0286226
35.957184 -8.7031231 -1.8853312
35.436821 -14.125926 0.79207325
37.896194 -6.0960007 -0.44159302
39.999325 -8.8051815 2.8039615
35.857101 -14.660799 1.7418356
38.245453 -6.0960002 2.6385951
41.306564 -7.5761795 -1.5035045
40.630402 -9.751029 -2.3632081
38.074612 -7.7456112 -3.1444721
36.642475 -14.914249 2.566107
36.151459 -14.041554 2.1238537
38.258595 -13.006218 -3.1645193
38.597881 -9.9826841 -3.1731033
35.983768 -14.561378 1.9215931
36.103371 -12.0006 -2.0689893
40.222694 -15.587363 -2.6738307
41.677341 -12.319683 -0.22297232
35.355312 -7.0942783 0.34385702
36.899979 -10.619204 -2.735415
36.013466 -6.0959997 -0.5021103
40.268562 -10.778265 2.6431918
38.439659 -15.308779 -3.1734464
37.358166 -6.0959997 -1.0132946
35.3736 -11.284245 -0.48321348
39.062794 -15.478112 3.1266422
41.350082 -14.5321 1.4194713
40.693253 -6.4151621 2.1293011
37.421944 -7.5968652 2.9823325
36.743454 -13.689301 -2.6366529
41.606365 -12.085842 -0.70451152
38.15287 -15.57272 3.1540132
40.165905 -9.571846 2.7086592
35.564323 -6.917397 -1.1808693
35.857841 -10.365705 1.7429396
37.723827 -6.9491611 -3.0753071
41.088512 -13.573614 -1.8527378
36.24612 -13.759085 -2.2245069
37.814556 -6.0960002 -0.68969619
39.435173 -13.616207 3.0369174
38.769562 -11.778004 3.164103
41.223991 -14.623848 1.6476328
40.398827 -10.219203 2.5518084
35.732281 -14.963819 -1.534765
39.50769 -6.0960002 -1.2595392
35.665226 -10.532905 -1.4064267
36.492935 -6.0960002 -0.42610154
41.068508 -9.3797932 1.8800236
41.471771 -6.370019 0.50847554
35.713192 -8.1190929 -1.4999583
35.720886 -8.2380295 -1.5139815
40.593468 -6.0960002 1.2462173
36.207294 -7.4461465 2.183955
35.704746 -6.6379619 -1.4845569
35.915207 -9.1296034 -1.8280811
40.642418 -6.0960002 -0.62590665
40.613888 -10.498069 -2.3776829
37.721348 -12.250451 -3.0746994
37.765102 -6.0959997 -2.0998454
37.98439 -6.0959997 -1.5062619
39.178444 -13.097715 -3.1036487
37.0093 -6.0960007 -0.8107754
36.160065 -10.834338 2.1336684
36.620651 -12.207906 -2.5501041
38.533752 -7.9850321 3.1745014
41.436474 -6.9282889 1.232569
35.4608 -6.4373569 0.36002523
39.892178 -7.3108349 -2.8580546
40.41275 -12.719607 2.5415938
39.242409 -13.603165 3.0888922
41.645905 -14.058449 0.4974429
39.271694 -12.444038 3.0817223
41.607536 -6.8429799 -0.69973469
38.12212 -6.9020715 -3.1506455
40.851433 -14.014105 -2.1452782
38.55386 -10.403131 -3.1740632
41.66832 -9.7346554 0.32669172
37.444767 -6.0960002 0.283788
37.003235 -8.3400908 2.793448
41.562733 -12.243762 0.87306345
40.215122 -6.0960002 -0.75996876
35.568733 -11.006712 -1.1922127
40.064129 -14.413919 2.7684231
35.674515 -13.968333 1.4252758
36.931984 -7.1117163 2.7543397
39.90905 -6.8674293 2.8497319
37.88311 -9.5128517 3.1115608
36.491432 -14.860989 2.4493823
35.344326 -7.2250581 0.22086893
40.543926 -13.115789 2.4384327
36.247967 -7.9901814 -2.2264352
39.359303 -10.764553 -3.0590274
35.734524 -8.9667149 1.5388525
35.47076 -9.3006363 0.91336691
40.817917 -6.0960002 0.27959216
40.628906 -7.6687775 -2.3645186
35.583588 -6.294281 0.067747511
40.778221 -9.045414 -2.2217433
41.389091 -15.249094 1.3402435
36.240257 -15.409924 -2.2183828
35.522224 -10.976765 -1.0706884
35.349064 -8.5113468 -0.28646275
37.032692 -7.3636508 -2.8096137
35.995373 -12.904515 -1.9370219
40.794029 -7.1049643 -2.2052357
38.069 -8.3276958 3.1436093
37.198914 -12.156445 -2.8906469
35.341866 -7.9656553 -0.18351921
36.198078 -6.0960002 0.75024039
35.595089 -10.110813 1.2547582
35.337742 -8.5920553 0.084987044
41.589203 -11.293862 0.77470052
35.567566 -9.9928818 -1.1892112
41.592106 -13.570312 -0.76284307
40.297798 -13.111712 2.623661
41.31958 -6.1960001 0.34723926
40.636246 -8.719883 -2.358083
36.060234 -14.409261 2.0178394
36.912617 -10.073812 2.7430859
40.44416 -15.572382 2.5185297
40.736156 -6.0960002 -0.49330595
39.995327 -12.754812 -2.8061533
35.424461 -8.5846367 0.74166894
35.425064 -15.228973 0.74412656
39.522736 -6.0960007 0.74205101
41.067608 -7.0443602 1.8812485
39.93272 -6.8602023 2.8380532
40.498447 -14.937038 -2.4749453
38.643539 -9.5457001 -3.1721079
41.208641 -15.336479 -1.6729171
35.444542 -9.6186714 0.82326537
39.069016 -15.297381 -3.1254044
35.404732 -10.393028 -0.65515566
40.958241 -6.0960002 0.75548935
41.66922 -11.398768 -0.31844807
41.558617 -14.504303 0.8871516
39.87299 -12.869493 2.8675208
35.348526 -13.47147 0.28155342
41.147289 -7.5355029 -1.767803
35.404709 -13.316031 0.6550349
41.249218 -7.0782919 1.6060853
38.063919 -11.774014 3.1428275
40.148125 -15.478215 2.7194529
37.672474 -13.713573 3.0619645
41.645386 -11.451306 0.50082922
35.803299 -6.2146149 0.88510871
37.57753 -13.404209 -3.0342958
39.964928 -6.6546502 2.8221657
39.821461 -8.8756266 2.8912749
39.312866 -15.526383 -3.0716417
41.661484 -12.35129 0.38905072
39.660019 -15.475939 -2.9589372
38.791031 -9.1360512 -3.1625447
41.484722 -6.9133301 1.1108011
37.653709 -12.517157 -3.0564971
37.699181 -12.222118 3.0692773
35.463158 -11.660458 0.88723093
35.404709 -15.410519 0.6550324
41.683071 -14.778685 -0.13056244
36.217072 -6.0960002 0.055296071
36.077736 -9.1194353 2.03965
35.678947 -15.56275 1.4342772
37.513649 -14.251211 3.0136311
40.070316 -6.5471931 2.7650292
40.179562 -11.126671 -2.700372
40.221466 -15.477523 2.6746528
38.972782 -13.332394 3.1405292
41.180218 -14.615732 1.7184877
38.097923 -7.2638383 -3.1479959
35.905956 -6.7363114 -1.814913
40.039253 -6.585043 -2.782068
40.802994 -11.242024 -2.1958785
36.833946 -8.4197407 -2.6953368
35.360657 -13.715586 -0.39289254
38.851151 -12.378618 -3.1559608
38.097916 -7.1486907 -3.1479952
40.39064 -8.1544113 2.5578074
41.136078 -6.2413788 1.1728162
35.344456 -12.085678 0.22287162
37.944565 -12.286322 -3.1237879
39.91592 -11.19919 -2.8463423
37.191872 -12.049868 -2.887548
35.579273 -6.6494727 -1.2188295
38.761429 -6.0960002 -1.7281597
39.202118 -13.521301 3.0987561
35.529446 -6.775876 1.0911602
37.498329 -9.1981602 3.0084274
35.928143 -7.6777134 1.8457195
38.562077 -11.753762 3.1738839
41.071281 -14.651569 -1.8762357
41.684399 -7.2592807 -0.069280967
40.716911 -12.758077 -2.2824109
40.793423 -8.6444969 2.2058697
36.100914 -15.025835 2.0661905
35.831329 -14.459063 1.7030138
41.540157 -14.467404 -0.95042902
40.583694 -9.837575 2.404145
35.535702 -7.1305037 1.1072668
38.372116 -8.873929 3.1719618
35.378281 -13.692034 -0.51357114
38.329788 -11.170856 3.1691866
35.337479 -13.461855 -0.072913781
41.579849 -10.334403 0.81295973
41.573368 -8.5052547 -0.83659244
35.516857 -13.788496 1.0548931
39.583061 -10.830245 2.9881845
35.352051 -14.184557 -0.31393799
41.659454 -8.199398 -0.40753597
38.862606 -9.2038345 -3.1547062
35.99065 -6.0959997 0.82864422
38.070168 -14.616456 3.1437879
40.401485 -10.298357 2.5498567
38.660187 -14.316006 3.1712725
39.857193 -6.0960002 1.0466037
39.495865 -15.551324 -3.0177782
37.9846 -9.5505419 -3.1306224
41.086315 -6.0960002 0.56466937
38.105331 -6.0959997 -2.052865
41.414017 -6.3534656 0.70383728
35.346916 -13.774128 -0.26024699
35.513969 -8.8686943 1.0464119
41.148956 -6.1547375 0.90370357
41.190029 -7.30264 1.7035677
35.835072 -6.6349931 -1.708879
35.458466 -13.329077 -0.87110543
39.099384 -9.662508 3.1193666
36.841545 -10.878935 -2.6999505
35.437347 -11.165932 -0.79422379
39.946423 -9.8611031 -2.8312933
38.902203 -14.060125 -3.1503692
36.353283 -13.535473 2.3287852
37.3899 -8.2022829 2.9698722
35.611732 -15.617798 1.2925771
36.247849 -11.777916 2.2263112
37.879021 -13.025126 -3.1107469
39.426437 -6.0960002 -1.9036481
35.340298 -10.061343 0.15971676
37.058933 -6.0960002 -1.8857048
37.03952 -9.9361515 -2.8133605
36.830791 -10.373673 2.6934223
39.929924 -6.0959997 -0.63076866
36.557087 -8.92208 -2.5020466
41.421993 -13.938032 -1.2654769
41.495739 -8.6715364 -1.08197
36.810146 -12.255475 2.6808927
38.741604 -11.218136 -3.1659353
36.565155 -6.0960002 0.87371099
35.449173 -11.97518 -0.83918214
37.450729 -12.607042 -2.9922602
37.46059 -12.94932 -2.9956088
37.948658 -10.205389 3.1246028
40.25145 -6.0960002 -1.462024
39.596779 -8.9030781 2.9835272
36.805878 -12.060923 2.6783023
39.01252 -13.631935 -3.1344094
39.516422 -9.5438213 3.0108011
41.289131 -10.979477 1.5352902
39.525211 -13.166996 -3.0078177
37.656387 -10.080342 -3.0572767
39.197773 -14.986601 3.0998049
37.961918 -6.0960002 0.14684819
35.952621 -8.8696966 1.8791113
41.684132 -11.211159 -0.081615053
36.495686 -6.0960007 -1.3133969
40.284523 -9.3877249 2.6325283
36.185219 -7.7667522 -2.1608968
36.853714 -6.0960007 -1.529873
35.758247 -12.048731 1.5821123
39.667221 -14.031201 -2.9561372
36.919651 -9.4799252 2.7473528
40.149712 -10.044803 2.7184887
39.614891 -12.404149 2.9764862
38.080803 -7.5797329 3.1454244
38.0215 -12.385231 -3.1362996
41.61208 -7.3762875 0.67973608
38.535507 -9.7512894 3.1744633
41.590752 -6.5481744 0.76838624
37.822346 -6.8855743 -3.0994086
40.96846 -6.2035637 -1.4194953
36.688232 -10.014925 2.599659
39.904442 -13.713302 2.8520062
40.941036 -9.9143076 2.0432017
36.000706 -14.735254 -1.9436663
39.235329 -6.0959997 -1.9305916
35.338531 -10.291189 0.12140711
41.170399 -8.3035049 1.7331893
40.243259 -6.1915798 -2.2324674
35.867981 -7.36766 -1.7581091
41.667007 -6.5224977 0.041247085
37.954445 -8.1460495 3.1257539
39.185059 -14.20164 -3.1023328
36.589066 -9.9708576 2.5269427
41.02433 -11.36258 -1.9396365
35.48114 -12.049719 -0.94904327
41.170921 -6.4377503 -1.5371267
36.719196 -9.7857857 -2.6204467
41.377186 -13.986786 1.3645389
35.361004 -8.8709564 0.39610183
35.834908 -12.212517 -1.7086327
36.88916 -7.6117668 2.7288489
40.666817 -12.778037 2.3304009
38.975094 -7.5969591 3.140173
37.538689 -11.189379 -3.0221372
39.269299 -15.284155 -3.0823088
36.12941 -12.949446 -2.0986969
38.17981 -6.0960007 1.9333838
37.535194 -9.1671104 -3.0209496
41.683502 -12.499105 -0.11070216
41.506912 -10.928767 1.0490274
41.145298 -14.626139 -1.7707851
39.082359 -14.663682 3.1227515
37.11145 -6.0959997 -0.069707252
39.140335 -6.2419081 -2.8065491
39.831474 -8.1341934 2.8868678
35.785862 -11.658886 1.6281201
35.54784 -6.337697 0.22572821
35.593658 -11.138477 -1.2515162
41.6633 -14.479919 -0.37245107
36.113777 -9.9967537 -2.0808656
35.940636 -6.6701102 1.8627617
36.30555 -6.2865553 1.914485
40.028305 -6.0960002 1.7388736
37.994034 -13.844332 3.1320739
41.645897 -13.454811 -0.49751174
41.512012 -6.961575 -1.0339911
37.948193 -11.574617 -3.1245108
41.654442 -13.618958 -0.44204533
35.867203 -12.97592 -1.7569466
35.406891 -13.53192 -0.66600549
41.57814 -10.200053 0.81995261
39.402691 -6.0960002 2.0616693
41.65152 -9.0657425 -0.46100292
41.6563 -14.543801 -0.43001127
41.182045 -11.975257 1.7157453
41.115242 -7.4682698 -1.8158016
35.505062 -13.142056 1.0202131
40.481544 -13.901033 -2.4885173
41.184341 -10.903489 -1.7123086
38.278191 -10.418661 -3.1658037
36.404686 -7.4372287 -2.3748908
36.197277 -11.482666 2.173492
41.019142 -6.1959438 -1.3113009
41.303764 -13.656328 1.5086026
38.668449 -6.0960007 -1.9049811
41.238346 -15.521448 1.6239929
38.824333 -7.7330561 -3.1588974
39.6563 -6.1322107 2.5179675
41.491135 -11.421259 1.0943158
36.176418 -6.6604061 -2.1517034
41.463268 -6.3181658 -0.013880098
40.063236 -11.113375 2.7689137
35.367027 -15.063182 -0.44056529
36.425568 -6.0959997 -1.3422825
35.561546 -10.824919 1.173727
39.525002 -13.374444 -3.007889
38.019558 -10.160372 3.1360011
41.648743 -7.9931836 -0.47902238
39.725365 -13.190107 -2.9335277
41.637718 -8.2958946 -0.55055553
41.484722 -7.0485697 -1.1107925
36.725578 -6.4006019 2.4536047
