# .PCD v0.7 - Point Cloud Data file format
VERSION 0.7
FIELDS x y z
SIZE 4 4 4
TYPE F F F
COUNT 1 1 1
WIDTH 428
HEIGHT 1
VIEWPOINT 0 0 0 1 0 0 0
POINTS 428
DATA ascii
35.344284 -18.796 2.497715
39.165634 -18.796 -3.2683659
37.607819 -15.621 -4.6484842
37.052513 -15.621 -2.9689972
39.989464 -18.795998 2.6687407
40.146477 -15.621 -3.4428079
39.24218 -15.621 -4.0664091
40.378521 -18.795998 1.7590616
39.190434 -17.438406 4.7128439
39.425125 -18.772749 -4.2940898
41.278744 -15.621 -2.4534721
38.848537 -15.621 -3.406831
41.974293 -18.054049 3.2675447
38.058533 -18.796 3.1775391
42.673019 -18.34186 -2.0479095
35.036549 -15.621 0.33240342
35.375771 -15.621 1.6955421
41.364998 -18.796 2.9597325
41.884773 -16.101292 3.3610475
42.547668 -18.463585 -2.139842
34.020523 -18.403423 -1.0157773
33.883766 -16.261383 -1.122582
36.782993 -18.796 1.7947373
42.322433 -15.620999 0.71582067
38.023399 -15.621 -3.807138
34.765656 -15.621 2.2823467
40.949715 -15.621 3.0930254
33.836365 -17.361513 0.90562749
39.109131 -15.621 -3.2962608
42.160809 -18.796 -0.37836322
36.799046 -17.980305 4.4430361
39.283951 -18.796 1.5671475
38.274418 -18.796 -3.4344218
34.219505 -16.946651 2.0632238
37.696266 -15.621 4.6515579
40.612446 -18.796 -2.3880525
38.332024 -18.579376 1.03386
40.433441 -16.947567 4.3559613
38.708565 -18.796 3.9162464
34.324425 -17.155794 2.2682447
33.959438 -18.431606 0.57382423
41.163845 -17.868069 -3.9537852
42.471596 -17.104471 -2.6425848
37.856522 -18.086334 -4.7167282
39.202 -18.451942 -0.87070262
42.815472 -17.436417 2.0365047
42.872959 -18.36075 1.546739
39.403011 -18.376295 4.531827
38.714729 -18.796 -3.4072466
36.953495 -18.796 2.6269116
38.106121 -15.621 -3.9600878
39.517731 -18.796 -1.7043036
40.14946 -18.590439 -4.1858969
39.138477 -17.146677 0.98072302
35.055004 -17.739086 3.2753732
35.619743 -15.621 -2.1323247
40.601585 -18.796 -2.2934079
35.366398 -18.59593 3.2082872
41.327744 -17.5954 -3.8387227
40.172806 -15.621 3.9706519
43.124527 -18.028378 -1.177762
42.393646 -17.360922 2.7568195
33.748688 -16.673178 -0.013041905
35.227699 -15.621 1.1668103
36.474609 -15.621 3.0307274
40.89064 -18.796 -0.97706825
38.037716 -18.076031 4.7380204
36.353157 -15.621001 3.2113242
37.43848 -16.450983 -0.21023218
35.434246 -16.221069 3.6348228
37.736332 -18.764223 -4.3268933
38.518921 -16.350063 -0.7813012
39.600464 -16.399561 -0.10401369
40.447735 -15.621 2.8306782
37.65424 -18.796 4.2185364
36.394905 -15.621 -2.5513349
35.231174 -15.621 2.6493893
33.859184 -18.242739 -0.64646721
38.995388 -15.621 3.8677988
38.617416 -18.796 -2.6979833
39.758087 -18.796 2.7714689
39.436386 -17.836206 -0.46473697
39.363346 -16.900263 0.59124357
41.546509 -16.959549 -3.6689069
33.83403 -16.965788 -0.89392203
36.596447 -18.796 2.6827235
34.698166 -15.621 2.7346258
38.146751 -18.796 1.6747638
42.117149 -18.796 -1.3564414
36.850731 -16.755539 4.4631333
35.836212 -17.367193 3.939296
39.553513 -18.346165 -0.26186511
37.294033 -17.751255 -4.6040702
41.737537 -15.621 2.5367591
42.84145 -15.691087 -1.9803413
34.953796 -18.77284 -2.5727544
38.307053 -18.290108 -1.03386
39.638229 -18.796 0.98475236
40.17001 -18.187988 -4.4271593
39.350563 -18.7899 -0.61338133
34.309494 -18.78463 1.2491548
35.910763 -17.755672 3.9891028
39.80558 -15.621 3.6054733
41.265289 -18.796 -1.5174695
33.963566 -15.621 0.79574007
34.635677 -17.246954 2.7671099
33.794567 -15.621 -0.098648354
42.929817 -15.621 0.58312291
36.848808 -16.318445 4.4623842
35.29837 -16.445297 3.51564
34.585144 -17.033031 2.6949301
37.928276 -18.796 -3.5430021
41.827106 -18.796 -0.56069231
43.050072 -16.400734 -1.4407357
39.345108 -15.621 -3.9818754
36.197922 -15.887353 4.1619253
40.090202 -18.796 -1.0412508
37.325676 -17.768156 -0.014852649
42.764713 -17.30143 2.1394346
41.535698 -16.349924 3.6775794
38.17424 -15.621 3.163312
37.966736 -18.795998 -1.2389381
35.273544 -18.796 0.030288346
37.138874 -18.796 1.9992338
36.143974 -15.621 -4.1144729
40.081406 -18.62455 4.1912279
40.342693 -17.276588 -4.3958921
39.430752 -16.368015 0.12482051
42.349525 -15.621 -1.5896987
34.688084 -18.796 -1.5855806
38.720062 -18.796 -2.1112394
33.913181 -18.410488 0.11181444
42.956814 -15.621 0.12832193
38.386726 -18.796 3.7795424
34.681816 -15.621 2.1661162
41.344032 -15.621 2.7370379
35.539116 -18.44474 -3.4846172
37.506134 -17.156897 -0.32741097
38.390106 -18.796 -2.5702093
38.904385 -17.5672 1.03386
37.883423 -17.940842 4.72087
34.054832 -15.716141 1.6783365
41.441299 -18.796 0.1273212
41.682598 -15.621 -2.8630693
43.151188 -15.672154 -1.0688384
34.352924 -15.620999 -2.3098218
38.100388 -15.621 -4.0606813
39.691372 -18.796 1.2745836
34.07428 -17.41814 1.7283461
34.182724 -17.362549 -1.985737
42.571507 -17.350433 -2.4863749
34.374878 -16.909964 2.3602414
40.277832 -18.199297 4.378232
39.405293 -18.049248 4.676744
41.947685 -15.621 1.4622698
37.11013 -15.621 4.1362629
35.178936 -18.796 2.7448897
42.418179 -16.455721 -2.7225633
39.273186 -15.621 4.315208
42.806736 -15.621 -0.036855206
36.62587 -18.796 0.84128958
40.163357 -18.307514 4.3557167
41.989563 -18.796 0.50931942
35.854267 -18.528385 3.6705713
33.978683 -18.420784 -0.7472527
35.107613 -16.754955 3.3303223
39.659397 -18.796 3.551549
36.699257 -17.258192 -4.4042397
39.067944 -18.796 -2.9002392
35.699627 -18.796 -1.49693
40.632286 -15.621 4.1296086
42.164124 -16.964535 -3.0551434
42.55138 -17.137484 2.5195403
40.50782 -18.796 1.0429325
41.681732 -15.621 -2.7522826
42.016022 -17.810398 -3.223953
39.193672 -18.796 -2.2308476
37.308517 -18.796 -2.3670783
35.808468 -18.796 1.4277705
42.552982 -17.963284 -2.5168948
39.623028 -17.32646 -4.6297054
38.167278 -18.641033 -1.03386
35.916874 -16.012445 -3.9931831
38.451653 -18.796 3.5667708
39.679691 -17.19129 -0.043320496
36.799015 -18.796 0.86806393
39.440136 -18.796001 0.60898346
37.928978 -18.72344 -1.03386
39.786156 -18.796 3.5251079
39.429417 -17.996033 0.47680396
40.802292 -18.795998 1.0385332
33.773796 -16.620899 0.48177248
33.960129 -17.356739 -1.4023398
40.470543 -18.796 3.5817964
41.420029 -15.621 2.5913694
39.216957 -18.108891 -4.7087622
43.237537 -17.454897 -0.57668573
39.213482 -17.418957 4.7092967
35.987705 -18.375217 -3.8697858
37.920483 -18.796 -2.2934561
37.228607 -17.115984 -4.5857377
39.741184 -16.731586 4.6007872
40.571064 -15.621 2.641679
34.368027 -15.621 -0.7266953
39.153931 -17.263172 0.9539609
39.760284 -16.42627 4.5953279
42.850437 -16.328102 -1.959922
35.32515 -15.621 0.13445301
38.789581 -17.817341 4.7533188
40.555782 -17.63822 4.3004236
34.716709 -15.621 1.8090488
36.80014 -17.409485 4.4434628
37.26416 -18.796 1.558893
38.466114 -18.796 -4.2695827
37.730488 -15.620999 4.6868372
42.098312 -15.621 -2.2567291
41.371567 -15.621 2.7654808
38.628098 -18.744583 4.4046826
38.43045 -15.817592 4.760746
39.509853 -18.796 -2.8936784
34.419956 -16.703186 -2.4365473
39.699345 -16.879845 -0.0092820581
35.667988 -15.621 -2.800787
42.143101 -17.224554 3.0796342
40.515198 -18.796 -1.2146449
37.935562 -15.621 -4.0524197
38.864532 -18.796 -3.7197835
42.24472 -16.17931 2.9546771
37.930222 -15.621 -4.4608574
34.105625 -16.720589 1.8089615
37.393005 -18.292774 0.13147157
37.541332 -15.843091 4.6617908
41.93446 -16.206705 -3.3091507
39.406155 -16.87718 -4.6765723
35.689869 -18.733816 3.393698
41.446053 -18.796 -1.7420024
34.345619 -16.790051 -2.3068843
38.753143 -18.796 -3.5519736
38.163021 -18.796 -3.3380911
41.31385 -15.961027 -3.8489034
36.078365 -15.621 2.0407617
41.245575 -18.796 0.26695076
37.665558 -15.621 -4.2517524
38.380192 -17.038607 1.03386
38.131042 -18.796 2.7306781
36.505138 -18.796001 -3.099582
42.647968 -17.453766 2.3581688
40.487263 -17.843252 -4.3322792
36.061348 -17.93236 -4.0830231
42.614658 -17.574722 2.4152677
41.606846 -15.777472 -3.6179028
36.012207 -16.570999 4.0531921
42.249096 -18.338366 -2.7498469
37.669395 -16.573603 0.61018777
38.926304 -16.897202 1.03386
36.82996 -17.689718 -4.4550562
37.739113 -17.323433 0.73094624
33.867554 -17.122118 -1.0563443
43.181957 -17.471102 0.92281574
36.503403 -18.796 0.66542333
38.651752 -18.796 3.8517787
34.595318 -16.310356 -2.7101436
36.085865 -15.621 -2.2428629
33.802162 -18.181484 -0.46407363
34.080872 -16.908876 -1.7452965
37.989536 -16.673742 4.7327461
42.130592 -17.415287 3.093899
34.820717 -18.642456 2.5143366
35.671207 -15.621 -2.9202588
33.866882 -17.822172 1.0536008
33.785221 -18.001726 0.58616233
38.351646 -18.796 2.9681818
42.580276 -16.723661 -2.4719179
36.808193 -16.147003 -4.4465942
41.159729 -17.483402 3.9565382
38.087345 -16.894043 1.03386
43.136105 -18.187782 -0.98034924
39.417957 -18.796 4.0974545
37.249775 -15.621 2.9572859
36.622585 -18.796001 -2.8907013
34.674698 -17.150314 -2.8203573
39.355854 -18.796 0.65635282
42.607914 -17.242004 -2.4263735
39.794712 -15.621 -4.0411863
37.244659 -18.796 2.3222866
37.405022 -18.796 2.6658525
41.16288 -16.468952 -3.954432
33.830528 -16.073349 0.87631708
39.91988 -15.621001 -4.5108099
41.477943 -18.796 -0.53266782
41.896103 -18.430229 -3.097774
35.98616 -18.796 2.2150688
43.256546 -16.634733 0.39597085
33.823299 -16.618153 0.84003639
40.600571 -18.796 2.4306293
40.881145 -18.796 -2.6641965
41.14127 -17.501911 -3.9688764
39.835102 -18.796 2.3439798
42.369408 -18.796 -0.36545542
37.410782 -18.540215 4.3884454
39.881222 -15.621 -4.4229393
36.071606 -18.222687 4.0261836
35.452892 -18.796 1.0922835
35.090252 -16.942535 3.3121893
37.809097 -18.173231 -4.6837692
34.004929 -18.453297 0.79448032
42.097317 -16.871437 -3.1318443
33.840588 -17.759676 -0.9268229
42.432823 -17.947275 2.700634
40.476475 -16.849785 -4.3370275
38.172493 -15.621 4.0350485
42.863712 -17.925474 1.9297552
35.044556 -15.621001 -0.5379709
35.329292 -18.796 2.4895372
36.127853 -18.151934 -4.1081076
37.206047 -17.594944 4.579164
41.980782 -15.621 -2.4658282
41.639462 -15.621 -0.71723771
39.479156 -16.392551 0.25343463
37.04781 -18.796001 0.22154146
37.770924 -18.796 -3.0729072
41.084064 -17.037519 4.0071154
41.630806 -15.621 1.7060385
40.279255 -18.796 -2.6224298
37.320705 -17.346319 0.0062466422
42.810547 -17.213045 2.0464897
39.564423 -16.313618 -4.6440487
37.215763 -18.796 -0.19295919
35.227791 -18.432175 -3.203032
39.588959 -18.796 -3.7423842
38.236443 -17.403841 4.7536001
43.259514 -16.568224 0.3503108
33.754524 -16.264 0.2325155
41.936611 -15.621 -0.80297434
34.376423 -15.620999 -2.1283638
33.955734 -17.445431 1.3872515
38.699398 -18.796 1.7483364
37.937408 -18.795998 -2.0684216
40.094906 -18.795998 1.4707601
35.168983 -15.621 -2.0576015
35.551735 -18.626133 3.3564157
38.806171 -18.796 1.1440668
41.616219 -15.621 -0.69950819
42.083031 -16.623938 -3.1481352
35.620003 -18.334387 3.6332381
40.811249 -15.621 2.4633174
41.819946 -15.621 -1.5958774
43.272221 -17.574369 0.053342015
37.11797 -15.621 -3.1092243
35.086903 -18.796 1.4964015
39.482807 -15.621 4.4878058
34.652805 -18.67362 -2.2135563
33.855766 -16.711769 -1.0029962
37.368095 -15.621 3.7442956
43.103264 -18.336458 -0.67585069
38.370804 -17.737249 1.03386
35.025719 -15.621 -2.2757537
34.77755 -18.796001 1.8125522
43.143505 -18.315065 -0.45079631
39.908516 -18.796001 2.9797196
41.88522 -15.621 -2.9762723
41.056118 -17.719879 -4.0249491
43.160942 -17.034195 1.0285544
42.21434 -15.689878 2.9925432
38.744759 -16.349199 -0.77755821
42.000076 -15.621 0.89866489
36.930336 -18.795998 -1.0292882
39.534584 -18.214989 -4.6004281
42.589989 -15.621 -1.7203953
40.290329 -18.796 2.5995479
40.971359 -15.621 3.1181808
34.84684 -17.492071 -3.0416503
43.26366 -16.261745 0.2866607
39.726158 -18.358725 4.467329
38.094067 -18.796 3.8473849
41.805222 -17.560011 3.437747
39.198601 -17.965998 -0.87659025
42.363758 -15.621 -1.4788423
40.246059 -15.625079 4.433938
35.317459 -16.1464 -3.5323825
42.263844 -18.048157 -2.9308345
33.966499 -17.183764 -1.4242203
37.930305 -18.203487 1.03386
39.430569 -18.795998 3.3722005
39.823116 -16.848917 4.5770178
33.865177 -15.621 -0.42717898
33.861374 -16.36079 1.0310901
34.567829 -18.796 1.2485397
41.802242 -18.796 1.1268902
37.763065 -16.885401 -0.7724247
40.579285 -15.621 3.3170867
41.918232 -18.796 -0.095090568
39.960159 -15.621 3.0744994
41.999954 -17.491074 -3.2407365
41.704453 -18.796 -1.2126105
43.043697 -18.105824 1.4595131
39.056229 -17.002874 1.03386
37.916473 -18.796 2.0597284
38.883224 -17.749241 -1.03386
41.737991 -18.796 0.79825449
41.480373 -18.026333 3.7219629
42.963123 -18.567829 0.70854592
42.943279 -16.724506 1.7392519
35.316704 -15.621 0.9950012
43.006351 -15.621 1.5106355
35.284744 -15.787291 -3.5029953
40.4067 -18.795998 -1.9500589
38.167862 -18.794655 1.03386
36.136368 -16.095791 4.1281624
38.022991 -17.166153 -1.03386
39.217007 -16.347702 -4.7087545
37.623955 -18.796 -4.0894079
43.266087 -16.759813 0.24939086
33.748901 -17.929338 0.022956697
40.159542 -16.857182 4.4675765
41.581459 -18.796 -2.9095213
36.606438 -15.621 3.8226562
40.545956 -18.796 1.3032124
39.030186 -18.796 3.8416367
42.390396 -17.596121 -2.7612524
43.056473 -17.950701 -1.4201988
41.955864 -18.796 -2.510823
34.218006 -16.587944 2.0601845
40.832165 -15.621 2.3349462
39.600327 -17.102409 4.6352615
42.115143 -15.620999 0.61800224
39.933807 -18.796 -2.1141703
33.872253 -18.173864 -0.95409197
