# .PCD v0.7 - Point Cloud Data file format
VERSION 0.7
FIELDS x y z
SIZE 4 4 4
TYPE F F F
COUNT 1 1 1
WIDTH 860
HEIGHT 1
VIEWPOINT 0 0 0 1 0 0 0
POINTS 860
DATA ascii
36.978413 -15.621 -3.8350787
36.199677 -8.9621468 2.1759987
35.404083 -12.449093 0.65190643
37.311916 -6.0960002 -2.2364409
36.334457 -15.24673 -2.3107672
37.172928 -6.5114117 2.8469925
39.937328 -15.621 4.1757774
38.846504 -18.796 -3.6277211
37.597244 -10.375771 3.0400412
36.991913 -7.450665 -2.7872334
35.982521 -11.29858 1.9198915
43.108955 -18.305573 0.75620204
40.512531 -18.796 -0.98139274
41.670059 -7.6684651 -0.31081995
36.284859 -18.796 -2.6707745
35.769638 -13.240108 -1.6013991
35.66613 -10.063772 -1.4082522
41.357029 -12.439081 1.4053937
39.833313 -14.231707 -2.8860593
41.674538 -14.611486 -0.26552707
36.321228 -6.5303497 -2.2840586
35.338821 -10.847763 0.13491316
34.39164 -16.658979 2.3898823
41.097069 -8.8844528 -1.8410643
35.393795 -6.5214396 -0.48910987
40.673878 -15.621 -2.7952287
38.493912 -6.0960007 -0.55071104
41.231571 -10.833029 1.6351504
35.34481 -8.5704679 0.22831611
39.028866 -6.6300206 3.1318924
35.468002 -15.554761 0.90388513
35.775101 -17.624609 -3.8982024
35.187508 -15.621 1.7920017
36.953537 -6.0960002 -2.0683057
40.575241 -15.785984 -4.2908297
40.42495 -15.411454 2.5326452
38.608955 -17.396955 -1.03386
39.682957 -6.5095425 2.9168127
37.978436 -17.37896 4.7315302
40.785423 -15.621 -3.7943921
40.98098 -14.462456 -1.9936537
39.05328 -6.0960007 -0.31073493
36.234955 -10.309473 2.2128432
42.834332 -18.5812 -1.2499424
41.634098 -7.0668831 -0.56896484
35.797455 -11.041355 1.6472232
35.313946 -18.796001 1.7381437
41.433308 -17.062143 -3.7597284
34.723248 -17.987226 2.8866062
37.139084 -13.57677 -2.8627334
39.131264 -11.627312 -3.113028
39.113262 -13.667763 -3.1166077
42.623158 -15.621 -0.19577283
39.101936 -17.244732 1.03386
42.235401 -18.524612 -2.5853853
38.106182 -16.263084 0.10846951
41.558754 -8.0616722 -0.88669699
40.470413 -6.648592 -2.4974532
42.904579 -15.93067 1.8368987
38.714142 -6.0960002 2.4620037
35.356228 -12.031025 -0.35221833
42.859318 -18.704853 0.84182394
39.637421 -18.741856 -4.2621512
36.302738 -6.286994 1.9119457
41.37101 -18.796 -1.4443486
36.682091 -12.506639 -2.5951564
35.391529 -16.477444 3.5973527
38.692791 -15.683588 4.758533
41.682995 -6.9187217 0.13403594
40.368984 -15.621 3.8555923
33.816662 -17.620132 -0.80073619
41.0168 -7.6800985 1.9490191
35.355267 -14.699713 0.34342545
39.110939 -18.30159 -1.0284261
38.101028 -18.713722 4.4055738
38.439816 -17.950615 4.7609506
35.951912 -13.742393 1.8781369
37.630695 -12.154627 -3.0497899
43.246231 -17.577702 0.49757403
42.847008 -15.621 -0.77696216
41.682194 -9.5870848 -0.14920335
41.347801 -10.654312 1.4240941
36.228588 -18.282593 -4.0778151
37.984024 -16.71114 4.7321424
38.946243 -15.621 -4.6453633
35.725586 -7.775054 1.522553
37.894108 -14.539154 -3.1137488
37.916214 -6.0960007 0.81265008
38.651302 -18.642105 1.03386
37.240524 -12.29248 -2.9089561
39.473766 -9.733181 -3.0252779
41.560062 -12.951105 -0.88220286
40.56702 -18.796 -3.3794267
39.386089 -17.254662 -4.6805634
37.408504 -18.182142 -0.15831842
35.986862 -6.2532887 -1.4017683
39.358257 -18.79191 4.2961078
38.10215 -6.5434613 -3.1484582
36.017624 -18.796 -2.8143816
33.886494 -15.791339 -1.1337171
39.272015 -16.012253 -4.7002897
36.066803 -6.7556105 2.0260217
35.573273 -9.3869772 -1.2038944
41.682041 -10.013988 -0.15156126
33.76804 -17.074459 -0.42916563
34.288311 -16.884024 -2.2023845
39.695557 -7.1308136 -2.9451177
41.334843 -15.621 -2.1373854
38.153908 -6.4923038 -3.1056545
36.293221 -15.621 3.5698659
40.645939 -15.01396 -2.3495889
42.237038 -18.796 1.0565141
36.225182 -10.416068 -2.2026327
41.114357 -9.4803219 -1.8171299
37.116787 -11.999622 2.8517432
33.888489 -15.621001 -0.35827014
36.817169 -11.331064 -2.6851561
40.639866 -8.1564341 -2.3549149
40.020523 -6.7712526 2.7923374
40.361835 -6.0960007 0.69976288
38.338707 -7.2971272 -3.1697712
35.397869 -13.340365 0.62061262
42.321503 -18.796 -1.298066
41.220585 -11.553683 -1.6532452
34.983883 -18.453094 -2.9137802
34.770206 -15.621 2.1742227
34.766647 -15.621 -1.589715
41.625629 -17.035069 3.6014247
39.37151 -6.0959997 0.11238281
35.790005 -14.794004 -1.6349466
36.339989 -7.9207706 -2.3160634
38.917511 -12.572092 -3.1486928
43.271389 -16.20649 0.090865843
42.919636 -15.663569 -1.8000673
34.163448 -17.750566 1.9419338
35.140503 -17.149612 -3.3646812
34.978416 -16.583521 3.1933484
37.175385 -18.796 2.9145284
39.952984 -17.817398 4.5386901
39.266563 -15.807019 4.7011275
36.345886 -6.0960002 0.58189869
35.393715 -13.89249 -0.59969974
36.237263 -18.796 2.7533278
40.514286 -7.2656875 -2.4622293
36.154972 -12.019799 2.127857
38.703312 -13.556623 -3.1684458
41.343552 -9.5423803 1.4326999
39.593864 -18.321255 0.19197664
41.580627 -15.621 -1.4659522
39.360352 -15.927184 -4.6856833
36.58963 -11.996637 2.5273561
40.978287 -16.424416 4.0721655
35.481636 -11.035425 0.950737
35.427784 -15.621 1.2330028
36.166389 -18.796001 2.239918
38.803131 -11.491879 -3.1612191
35.419762 -13.781332 -0.72250986
37.432823 -9.1226406 2.9861774
37.525227 -18.796 -1.2226194
37.519585 -17.64905 -0.35071391
35.402996 -18.796 -3.0183196
41.013672 -18.796 3.1193643
39.260071 -15.621 -4.2456355
37.297291 -18.796 0.75721228
36.01643 -7.3448625 -1.9632639
41.639961 -12.885763 0.53600961
35.983959 -13.916359 -1.9218544
36.220177 -16.645494 -4.1741323
38.602142 -11.085773 -3.1730103
42.909077 -18.726269 -0.41088942
37.476307 -10.416541 3.0009465
37.860771 -6.4564552 -3.0214448
35.474911 -18.796001 -1.0122305
37.817673 -15.621 3.7686062
39.100395 -6.0960002 -2.1561749
39.418854 -11.044724 3.0416729
34.193775 -18.509138 1.4127817
39.21167 -18.454033 4.5199113
42.83094 -16.319983 2.0042207
35.927689 -18.610456 3.665669
38.972527 -17.530554 -4.7392836
38.786892 -11.898815 3.1629663
38.488415 -14.032908 -3.1745095
35.340111 -8.8604259 -0.15687592
37.100651 -18.796001 -0.21206383
41.353531 -11.579795 1.4124774
33.761467 -15.804826 -0.33835503
38.028362 -16.840561 -1.03386
39.747757 -14.986399 2.9237041
41.617035 -8.874835 0.65480417
39.146587 -13.523258 3.1099823
40.059822 -18.796 -2.4783306
34.261791 -18.656013 1.3494205
42.77993 -15.621 1.497427
38.545052 -10.207072 3.1742549
40.612995 -18.796 -1.4796507
36.365105 -11.854916 2.3400986
34.634346 -15.620999 1.6940405
41.226982 -10.266075 -1.6427088
39.897255 -17.836084 -4.5554113
37.440464 -15.189266 2.9887719
41.635334 -9.8590431 -0.56272519
39.155209 -18.153662 -4.7040358
35.494774 -11.499153 0.98995531
35.727417 -10.648491 -1.5258954
41.360519 -14.772577 -1.3983256
35.341469 -8.870307 0.17747781
34.878345 -16.810614 -3.0792353
39.377937 -16.949463 -0.56596899
41.327034 -6.9849753 -1.4661679
36.027939 -8.72087 1.9775991
36.421223 -12.408484 2.3893967
36.040131 -7.6574383 -1.9927876
40.137383 -17.233856 4.4760771
39.719479 -14.532221 -2.9358172
36.003082 -10.197809 1.9466298
35.961273 -10.378691 1.8909072
40.103874 -12.187987 2.7463069
36.844452 -18.107552 4.4606915
38.862652 -6.0960002 2.6161318
38.857845 -6.0960007 -1.8163457
41.208775 -9.5642376 -1.672696
38.073666 -14.461353 -3.1443264
35.489777 -18.761124 3.1944108
42.638062 -18.796 1.4044231
39.4505 -12.281404 3.0324495
39.918003 -18.796001 -1.027794
39.665039 -17.634394 0.068702765
42.982227 -15.621 -1.1901325
37.053833 -6.0960002 0.57974029
38.637825 -13.038265 -3.1722322
36.417843 -13.195869 -2.3864324
36.52557 -11.005542 -2.4767661
40.345009 -6.0960002 -1.1270392
39.59903 -15.228514 -2.9826539
35.757381 -18.796 -1.3536247
39.571243 -17.452646 4.6423788
41.538589 -8.4011307 0.95565206
37.209496 -8.273881 2.8953032
41.213249 -14.9799 1.6653249
35.531235 -14.962858 -1.0957716
35.597424 -8.4006424 -1.2600704
42.881283 -18.550655 1.1485667
36.103939 -18.514687 -3.8486454
37.274292 -18.796 -3.3153055
39.098099 -6.0960002 2.1795385
36.273232 -15.621 -3.019156
35.87582 -15.621 -2.2978125
37.549355 -13.696102 3.0257592
37.776344 -9.5560999 3.0881548
40.129734 -6.724782 2.7306125
43.229515 -15.961502 -0.64169699
37.95842 -8.8382568 -3.1265452
41.871811 -15.621 2.6217439
38.038204 -18.796 1.667099
42.612865 -18.503569 1.9588418
39.833813 -18.796 -1.4325826
36.604218 -15.54166 2.5380545
36.357311 -18.795998 -1.1014652
37.907455 -15.621 4.2963686
38.556721 -6.0960007 0.82329053
37.464924 -6.0960007 -1.8038292
36.339592 -9.0890541 -2.3156815
37.624279 -18.339119 -0.5320462
34.109287 -15.621 -0.40341818
37.578396 -11.481129 -3.0345483
41.130028 -15.286955 -1.7936549
40.720078 -18.796 1.9648218
38.973007 -18.796 2.3141508
41.300236 -12.25893 1.5150423
43.27293 -16.159763 0.021286096
39.624748 -14.340313 2.972652
37.269115 -10.316316 -2.9215353
40.019699 -8.6791573 -2.7927895
34.573967 -17.299276 2.6782105
37.652168 -12.78511 -3.0560484
33.766392 -16.558331 -0.41346049
42.492435 -15.621 -0.79043245
38.977295 -16.313496 0.43814787
37.452919 -18.796 1.3937851
38.245083 -6.0960002 2.0652969
39.948021 -17.672947 -4.5403767
35.891087 -8.8941994 1.79267
34.516422 -15.621 1.3007452
35.768791 -14.226921 1.6000073
35.334427 -18.796 -0.94363081
38.0159 -15.648109 4.7356324
36.052612 -14.906776 -2.0083442
35.602753 -10.692627 -1.2721729
35.342113 -7.7815809 0.18728097
37.556908 -18.796 -1.4028034
35.638481 -12.011095 -1.3521309
36.168827 -15.621 3.9864326
37.353756 -7.2954583 -2.9558177
35.407738 -16.346464 -3.6115689
39.1744 -6.8586659 -3.1044519
35.336193 -15.405232 -0.013501734
42.610836 -15.675008 -2.421567
39.045197 -16.314833 -0.33210534
39.247452 -9.8659554 3.087657
36.490383 -15.621 4.2287974
35.336716 -14.570222 -0.037763111
36.955498 -10.138179 -2.7672472
41.681423 -14.432054 0.16094352
41.544258 -16.839512 -3.6707091
39.696621 -8.4672527 2.944705
42.670998 -18.796 0.41865644
34.999702 -18.633682 2.7669666
38.830376 -8.9129696 3.1582355
41.427277 -11.339979 1.2534704
41.443897 -15.621 1.8173361
39.835075 -10.159628 -2.8852835
36.457317 -18.796 -0.0029352177
37.282284 -6.0960002 1.822396
43.012966 -15.621 -1.5370245
38.215305 -18.358109 -1.03386
35.785786 -15.429636 -1.6279998
39.813286 -6.0960002 -1.0790476
34.978935 -18.198259 -3.133559
40.201096 -14.646836 -2.6873014
36.829041 -15.765213 4.4547
41.801147 -18.796 0.28000218
36.591286 -16.772722 -4.3572688
41.652756 -6.5088997 0.071036249
36.59845 -6.0960002 -0.44703341
41.682617 -7.0136995 -0.14278178
38.842182 -17.778137 -4.7498717
35.553513 -8.5478315 1.1530749
34.904266 -17.411489 -3.1087973
34.021477 -18.595642 -0.17567286
35.338051 -7.9225349 0.099160574
35.92141 -15.621 2.3617563
39.13475 -16.294937 -0.0047321105
40.958855 -18.796 1.2369903
39.512646 -16.435234 -0.33264539
43.273346 -17.273069 -0.0023362678
37.57188 -6.6524553 -3.0326495
41.572681 -18.796 2.8336234
39.208569 -9.0520153 3.0971773
38.452923 -6.2942691 -2.9275045
42.568108 -16.138371 -2.4919772
35.585526 -12.706223 1.2330315
36.56258 -13.244128 2.5064507
41.58429 -13.643703 -0.79481006
36.177418 -6.0960002 -1.228001
38.344826 -6.0960002 2.6483548
39.490078 -6.0960002 -0.97595859
41.53447 -9.2094231 -0.96779603
39.356209 -13.990355 -3.0599291
35.965691 -18.796 -0.93107593
35.341267 -11.853647 0.17440397
41.957047 -15.621 -1.8773725
38.652695 -11.817795 3.1717634
41.018906 -9.9413815 1.9463927
38.051582 -11.230523 -3.1409285
35.541084 -18.796 2.6937976
39.926323 -14.944958 2.8412085
35.132923 -16.518801 3.3567595
42.778416 -17.661692 -2.1116495
42.238052 -18.796 1.945796
39.41465 -15.621 -3.2388868
41.870171 -17.536161 3.3755724
34.245605 -18.796 -0.052864969
41.612637 -11.86851 -0.67693233
36.226505 -18.796 3.7187121
38.660671 -15.621 4.1683331
34.069946 -18.653244 0.40752304
35.450653 -9.0573616 0.84425759
36.282211 -18.796 -3.3996506
40.822548 -18.046862 -4.1626244
37.563339 -10.326801 -3.0301602
40.469425 -6.409483 2.3301282
36.083344 -8.083951 -2.0461454
40.990257 -6.0960002 0.75329083
38.703819 -8.2669039 3.1684124
37.963394 -7.985898 3.1273589
39.138069 -10.509786 -3.1116762
38.234982 -6.0960007 -1.7756734
36.773045 -16.974222 4.432929
39.176258 -12.842556 3.1040826
34.098751 -17.294271 1.7912911
34.076523 -18.330463 1.386747
34.01564 -15.877899 1.5700823
39.749794 -6.0960002 1.1610057
36.766441 -12.159092 2.6520126
39.896366 -18.796 -3.1924839
36.226486 -9.0147133 -2.203999
37.15683 -6.0959997 0.6036576
38.123158 -10.026952 3.150759
41.337646 -12.168617 -1.4446652
36.474243 -8.8953953 -2.4355924
37.522797 -18.796 0.86683261
40.697304 -18.795998 3.2510262
41.680099 -13.61076 0.18100387
38.929459 -9.2048779 -3.1471999
41.292953 -18.796 1.0353826
37.277771 -15.621 3.4578602
41.582462 -14.188479 0.80227995
40.510742 -18.704571 -3.9523711
37.034988 -6.5054941 -2.7709515
38.25634 -18.545029 -1.03386
39.711342 -15.621 4.1883636
39.678978 -6.0960002 1.4370346
38.792496 -16.340542 0.74007022
38.040672 -17.739828 4.7383442
42.416122 -18.796 0.92946947
41.492924 -12.62705 1.0897009
40.876541 -8.9052744 2.1166921
39.766464 -6.1608319 -2.4968286
34.128311 -16.997883 1.8620954
40.642426 -18.796 -0.5581103
39.648117 -16.606867 0.098010205
37.357239 -10.30889 -2.9571726
41.905804 -15.621 -0.1741714
39.681992 -17.764496 0.039330974
38.782604 -7.6038952 3.1632478
41.149979 -18.796 -1.6957455
36.276325 -7.9865952 -2.2551346
41.998413 -18.184692 -3.1961014
36.565132 -18.796001 -3.0306435
38.809559 -8.0213547 -3.1605155
40.251125 -16.271809 4.4319687
36.95657 -18.369324 4.3542786
38.881775 -6.0959997 -1.1199075
35.4104 -13.732274 0.68366766
39.200439 -17.775669 0.87340677
39.51889 -13.457461 3.0099642
42.030434 -16.279217 -3.2081165
36.592701 -6.0959997 0.30771828
41.590652 -8.3578568 0.76878613
37.375099 -18.796 -1.5603926
35.366165 -13.574516 -0.43495861
41.031876 -12.149054 -1.929987
41.501255 -11.079651 1.0657011
38.039711 -14.42713 3.139102
39.100994 -17.209599 4.7252107
35.314014 -17.680365 3.5293615
40.933701 -6.0960002 1.1230748
35.543201 -18.796 -2.1753962
37.139759 -9.4124928 -2.8630662
35.21595 -18.796 2.236943
37.467449 -10.222897 -2.9979389
37.751595 -16.752277 -0.75256664
37.63287 -18.534746 -4.4413714
36.541904 -7.3682933 2.4898701
37.858078 -18.699656 -4.3838434
41.835594 -15.621 -1.4985703
40.753689 -18.796 3.1738055
39.045456 -9.6925297 -3.1293385
36.157307 -15.621001 2.1440594
38.111725 -15.085094 3.149507
34.0467 -15.621 1.1655712
38.687962 -18.137522 4.7538905
35.503834 -8.8653421 -1.0166078
43.264175 -17.240402 -0.27878866
39.805183 -12.142057 2.8984356
38.367455 -18.796 -2.333904
37.250244 -6.0960002 1.3845661
41.426559 -12.992596 1.255106
35.914944 -18.795998 -2.9508853
39.141972 -11.711606 -3.1108999
35.999374 -14.88532 1.9420075
41.394115 -13.678044 -1.3288209
35.772491 -7.880065 1.606097
40.630718 -6.0960002 -1.043537
36.461521 -14.010669 -2.4247503
37.331478 -13.353589 2.9471545
38.925537 -18.796 3.3751583
43.271362 -18.109104 -0.091767199
41.529701 -14.645946 0.98184544
39.219818 -8.1742744 -3.0944238
36.399853 -6.0960002 0.92518389
41.396561 -18.796 3.0736563
37.74765 -18.796 2.3691945
35.357281 -15.078894 -0.36191997
39.117435 -18.796 1.5072267
38.783394 -16.242155 0.15626396
37.380199 -11.398298 -2.9661002
35.349968 -8.1036463 0.29479811
38.684685 -18.796001 -2.8946426
35.475471 -17.328022 -3.6690454
38.86377 -18.216572 -1.03386
39.334015 -9.3315601 3.0663986
37.049152 -18.796 -2.9309425
36.895668 -16.862156 4.4799285
40.291164 -15.621 -3.1176896
41.615158 -15.34382 -0.66427016
35.61092 -18.509863 3.4960909
33.862793 -18.224436 0.73946261
42.41378 -17.509481 2.7291489
36.908024 -18.796 1.7051113
35.390678 -15.322451 0.58443493
41.18998 -18.796 -0.26165685
41.235355 -15.621 -3.4723115
37.300034 -8.0729666 2.9349279
38.905266 -16.321751 -0.63438976
36.366852 -14.026769 -2.3416963
36.564064 -6.1512303 1.9918392
41.344963 -15.328712 -1.4298561
33.925301 -15.679798 -1.2827475
38.665619 -18.654259 -4.4560194
37.714424 -18.796 4.0088196
35.591087 -10.564579 -1.2456614
36.779106 -16.787397 4.4352841
40.019386 -17.241798 4.5161433
35.534119 -6.3477068 -0.16968454
42.935627 -15.621 -0.21463597
39.681564 -13.64818 -2.9505596
41.034622 -10.740501 -1.9262428
40.407387 -16.690559 4.3674264
41.322533 -11.399117 1.4743791
38.940422 -15.621 -4.2966633
41.993652 -18.050905 3.2473228
38.147575 -16.376568 -4.7477741
36.463428 -18.796 -3.5651731
39.171078 -11.618677 -3.105113
35.338009 -9.0323381 0.097415596
33.859573 -16.551334 -1.022114
42.113464 -15.947346 3.1134288
38.373161 -18.361286 -1.03386
42.002907 -18.796 -0.96325821
41.30711 -14.716808 1.5024983
41.70377 -18.796 -0.21578221
41.260292 -12.182696 -1.5878458
35.715923 -18.796 -1.155556
39.211056 -18.796001 -1.7550733
37.760616 -18.146318 -4.6920223
39.899902 -6.3563566 2.6485271
35.354595 -11.649737 -0.33726376
39.784672 -13.233582 -2.9074602
41.406128 -8.7087488 1.3015321
43.168388 -17.873951 0.9911176
41.684036 -11.916965 0.086159989
39.387299 -9.7461891 3.0508692
39.730068 -16.310841 -4.603508
35.765564 -15.621001 -3.8732753
37.085327 -13.900249 2.8362379
39.01897 -6.0959997 0.58778453
40.122383 -11.500132 2.735075
37.433102 -16.741632 -0.20091408
36.161644 -16.714184 4.1420245
39.551521 -18.796 -2.8642261
40.372822 -15.421605 -2.5708766
42.96352 -15.797827 -1.6871971
42.10247 -16.823854 3.125967
35.663063 -16.680544 -3.8160255
36.720608 -14.322359 2.6213913
33.987507 -16.246586 1.4872153
40.686127 -18.796 0.29167241
36.244339 -18.796 -2.7263384
34.216042 -18.796 -0.19976714
36.094635 -13.338743 -2.0590253
40.90678 -8.5152531 -2.0822396
38.309078 -18.60824 1.03386
37.124012 -18.608068 -4.2655749
40.185646 -9.7844696 -2.6966794
35.586731 -11.734162 -1.2357726
40.830429 -9.0361004 2.1672161
36.013828 -9.7459297 1.9600232
40.194637 -18.796 -3.5118389
42.554264 -15.621 -1.2962719
43.272717 -17.624998 -0.030974444
40.350227 -11.891319 -2.5874438
34.9599 -16.908264 -3.1722312
36.28833 -12.311428 -2.2666223
40.184284 -17.247005 -4.4579554
42.968658 -15.621 0.6397121
39.182728 -18.639086 4.4162855
35.426434 -15.621 1.8796451
33.779362 -17.862574 0.53261626
36.008373 -6.7738762 -1.9532218
38.577797 -14.369667 3.1735413
36.855652 -6.0960002 2.0256708
41.646568 -13.862813 0.49312314
35.629326 -15.621 3.2360771
37.514656 -15.78387 -4.6564846
41.679535 -9.9020481 0.18963033
41.108543 -10.259134 1.8254104
40.778 -13.208674 2.2219777
41.532288 -14.5196 -0.97422099
40.383568 -7.5594788 2.562993
36.256367 -15.621 -3.9571455
40.757793 -18.796 3.1024854
42.049438 -18.093161 3.1864393
37.75399 -6.0959997 -0.15658242
40.8606 -18.796 2.4024694
40.548916 -7.7924523 2.4344254
40.428345 -9.1451159 -2.5301621
38.278374 -16.230873 0.12780455
41.657551 -9.7494574 0.42186868
35.980473 -7.162045 -1.917096
39.121429 -18.796 -1.5831525
33.8218 -15.920254 0.83250988
36.821198 -18.796 2.9259248
35.343605 -10.895861 0.20992777
41.044952 -15.180834 1.9121529
35.398182 -18.796 -0.07764639
38.122074 -10.435772 -3.1506405
38.655201 -16.660601 4.7593527
36.653214 -8.7366495 2.573983
40.351082 -14.708241 -2.5868185
41.862522 -17.628633 -3.3828962
39.864723 -6.3415356 2.6497917
35.6436 -18.796 -2.7595954
39.325169 -16.562487 -0.65736353
41.451061 -15.509081 1.1973751
37.460808 -18.796 2.0937474
36.889938 -15.435969 -2.7293205
36.658657 -17.546463 4.3869305
38.392181 -16.771944 1.03386
36.124413 -16.456795 -4.1213007
40.920593 -13.369986 -2.066494
35.5966 -14.949259 -1.2581964
37.826767 -17.098745 -4.7121468
37.802639 -14.919824 3.0945868
36.311096 -6.0960007 1.5978287
39.033333 -13.136105 -3.1312051
39.194092 -18.092896 0.88439393
42.600739 -16.606339 2.4382017
40.592297 -18.728186 -3.8946209
34.238194 -15.621 1.4215333
35.780022 -15.621001 -2.7633798
42.745819 -15.824604 2.1777515
33.831909 -17.613171 -0.88326359
35.510761 -15.36975 -1.0369844
41.4328 -13.488751 -1.2409124
33.786896 -16.966507 -0.60147142
38.026466 -7.4889078 -3.1370642
41.360298 -7.5985208 -1.3987745
38.160233 -17.561962 -4.7486038
40.761826 -12.946281 2.2388721
41.107941 -9.0012722 -1.826232
39.408607 -18.429962 -0.51285034
41.263702 -14.098518 1.5816694
37.618935 -12.757788 3.0463629
41.57135 -17.644207 3.6489744
39.63327 -15.621 4.0452385
34.55468 -15.621 -1.2339176
34.754417 -16.116062 -2.9265318
39.409199 -16.671833 4.6759672
35.524059 -9.4214592 1.0760871
36.215256 -6.3343048 1.8816628
40.606071 -18.796001 -2.825202
37.292797 -7.2830234 -2.9319568
40.554337 -18.796 -3.3346286
37.554398 -15.621 -4.1773148
38.969864 -6.0960002 0.18099643
39.732471 -14.847376 2.930428
36.286015 -12.758101 -2.2644043
41.784538 -16.900789 -3.4575436
42.354332 -15.733505 2.8104277
35.691525 -15.621 1.4967928
38.608688 -6.0960002 -0.33286184
38.245003 -18.516933 -4.5299163
40.112793 -13.637033 2.7408934
33.821423 -15.710223 -0.83060306
36.357075 -7.8361063 2.3324165
36.945072 -9.2488375 2.7615263
41.430069 -17.19083 3.7623281
35.34264 -17.27228 -3.5544732
40.898579 -12.064808 2.0915768
39.488228 -17.71711 -0.37493959
37.410824 -10.566149 2.9780073
41.538605 -18.795998 2.6944649
40.385597 -11.707155 -2.5615077
38.141605 -6.8539519 3.1527796
35.401123 -13.617213 0.63698405
41.683975 -13.960313 0.088871211
40.874676 -11.075716 2.1188192
38.235409 -18.519384 -4.5278692
36.875519 -9.4896975 2.7205691
34.428772 -17.840931 -2.4510717
37.885586 -15.620999 -3.5244856
38.366879 -18.562941 1.03386
37.305981 -18.796 1.2033852
40.41254 -18.796 0.37891719
36.748314 -6.5053167 2.5976009
36.017792 -18.796 -1.3021338
34.373039 -17.65485 -2.3568902
41.672157 -8.2083025 0.29173058
38.433495 -18.796 3.6729555
41.590149 -14.125854 -0.77082551
37.125538 -10.046615 -2.8560579
42.689415 -15.86841 2.2826657
39.612953 -11.033648 2.9772398
41.707409 -17.509701 3.5296907
35.636497 -11.514055 1.3481008
35.765186 -8.7449703 1.5940702
41.51791 -7.1885962 1.0166169
41.343269 -13.721715 -1.4332823
35.155445 -18.796 0.7118836
42.168785 -15.686358 3.0493236
35.343971 -8.6805286 0.2154806
35.677094 -7.7860937 1.4305141
38.339745 -6.3551979 2.9841843
43.269737 -18.099285 0.16553037
38.814457 -15.621 -3.8119371
36.090454 -9.7535896 -2.0542574
40.537975 -18.796 -2.6530235
41.745331 -15.621 1.7553229
42.481289 -17.676048 2.6280789
41.388557 -8.5680008 1.3414539
38.78569 -18.796 2.1105108
42.469437 -18.229761 2.5414166
36.177792 -12.357247 -2.1531394
39.552025 -7.6408963 2.9987173
35.466019 -8.8147182 0.8970719
34.766953 -17.049273 2.9421439
36.709839 -18.796001 1.6949663
34.960575 -18.796 0.91059029
42.256699 -16.760813 -2.9397409
42.116173 -17.270231 3.1103413
33.778496 -17.607494 -0.52472651
39.185013 -18.726036 4.3651505
36.062187 -6.8678126 2.0202737
35.424004 -7.1035266 -0.73979592
39.897015 -6.4327278 -2.7355285
35.341843 -15.617645 -0.18313655
40.829895 -17.310429 -4.1585894
37.715488 -10.313731 -3.0732663
36.422783 -15.621 -2.6694484
39.810539 -14.473442 -2.8960814
37.364273 -6.0960002 1.8703281
39.772194 -18.796 1.763624
38.167671 -10.738566 -3.1556344
41.139076 -17.906075 -3.9703414
38.970776 -15.621 3.2132752
37.530293 -15.621 -4.3858781
35.33831 -9.9817667 -0.11138015
39.02726 -10.323399 3.1321397
42.868103 -16.145359 -1.9197844
35.618027 -10.676885 1.3068819
41.122196 -6.0960007 0.73012811
41.407303 -17.349045 -3.7804017
34.95612 -18.796001 -1.7451897
41.128975 -14.86789 1.795233
40.090508 -6.0960002 0.72562909
40.623569 -7.9892645 -2.3691962
36.886871 -15.621 4.0440888
34.024109 -17.733223 -1.5950248
43.205391 -16.716734 0.79848766
34.925472 -18.796 0.91883546
41.175343 -6.5225434 1.6931757
41.623013 -7.5622177 0.62473792
35.950584 -8.5405416 1.8763365
36.255539 -6.0960007 -0.32169816
41.338043 -11.390854 -1.4438657
43.115807 -16.121147 -1.2133936
41.68158 -11.141445 -0.15852079
35.952801 -17.450977 -4.0171371
39.841175 -6.0960002 2.2800994
40.903458 -12.464465 -2.086026
41.212391 -15.621 -2.1765046
40.761703 -17.400419 4.1960135
36.303162 -15.096118 -2.2808168
41.274693 -16.240099 -3.8776112
40.388519 -14.947494 -2.5593615
43.047302 -16.779448 1.4488868
41.610451 -14.099233 0.6878196
39.346321 -9.6954823 3.0628109
37.69252 -18.757952 -0.65024608
36.650047 -17.244303 -4.3831387
41.631508 -17.917759 -3.5962727
41.138428 -18.796 -0.21729223
40.911541 -18.796 -2.8017216
37.927231 -18.796 4.1020193
36.554459 -6.4629583 2.4005589
40.630569 -6.0960002 -0.38732588
36.136288 -18.792835 3.6791444
41.029999 -13.709184 -1.9325473
36.147747 -15.524044 2.1196156
37.850117 -8.6292315 -3.1049962
43.111885 -17.686705 1.2294211
38.724209 -18.795998 4.0998292
37.069115 -18.796 -1.005824
39.857708 -18.796 3.2375612
41.578259 -16.859711 -3.642977
38.937153 -18.796 -3.5700104
38.175274 -18.796001 1.7347683
37.990417 -18.796 1.795372
38.200966 -9.2017059 3.1592803
35.438087 -8.4485779 -0.79722804
43.222488 -16.39316 0.687343
43.210358 -16.157629 -0.76621103
37.687946 -18.693077 -4.3591413
35.978256 -10.997458 1.914077
34.612514 -15.884315 2.7355011
35.434326 -11.59754 0.78189498
42.69643 -18.796 -0.78126961
36.134949 -14.427797 -2.1050143
40.503105 -8.4784355 -2.4712036
35.524544 -18.796 -2.1935279
36.449104 -18.796 -0.75999963
41.883385 -17.110043 3.3624969
36.646904 -6.0960002 0.72261608
41.017185 -11.37238 1.9485372
42.213268 -16.723648 -2.9938788
35.348343 -15.621 1.1707352
39.28244 -11.677475 3.0790911
42.700348 -17.082838 -2.2627513
38.357529 -16.273779 0.45103452
37.481236 -7.0403895 -3.0026221
37.322021 -12.622777 2.9434791
38.485161 -18.796 -1.7842284
37.294106 -6.0960002 1.9113246
40.318916 -11.087521 2.6095538
40.505882 -14.430817 2.4689748
36.460915 -6.0960007 0.19444881
41.781044 -15.621 -2.9689064
35.36364 -13.287251 0.4185915
42.25349 -15.621 2.0872478
39.174549 -16.02599 4.7152886
35.508072 -18.796 -0.6503824
38.900757 -6.3291869 2.9378672
37.458031 -15.621 -3.0220306
34.331699 -16.842823 2.2815037
35.506039 -15.685254 -3.6935716
35.961746 -9.9140701 1.8915559
34.103626 -17.319891 -1.8038158
35.963219 -13.6067 -1.8935604
39.119209 -6.3519468 -2.9232292
35.14003 -15.621 1.6819049
38.668606 -13.905683 -3.1707208
39.331108 -8.6754827 -3.0671749
35.750462 -11.296824 1.5679179
38.613262 -9.0768414 -3.1727679
37.043884 -18.796 -1.084094
37.288986 -6.0960002 1.1054602
38.552197 -6.0960002 0.6464898
40.100574 -15.531617 2.748312
34.857826 -16.43458 3.0553339
35.347961 -12.958432 0.27615401
39.69001 -18.152317 -4.5996318
40.059311 -18.795998 -1.5970416
35.652313 -9.9633226 -1.3802099
36.781395 -18.796 0.43072635
39.404491 -18.796 -4.1176968
38.283028 -15.621 -4.7485938
39.941387 -18.796 -3.7249582
36.536251 -18.796 -0.40749317
36.849495 -17.497671 -4.4626532
35.998878 -18.796 1.2165465
38.140366 -17.825748 -1.03386
37.247261 -15.621 3.6238966
33.785477 -17.081078 0.58853316
41.86956 -15.621 -1.8095331
39.360077 -15.544461 3.0588026
35.717014 -7.3759165 1.5069278
36.435467 -9.3080025 2.4018908
40.813904 -16.998619 -4.167367
40.796135 -17.126511 4.1771193
40.935913 -8.2547894 2.0490398
36.277325 -17.528145 -4.2054801
39.435867 -6.0960002 2.059329
33.767292 -15.70557 -0.42231989
40.337723 -12.032929 2.5966129
41.183395 -8.6764622 1.7137246
34.76128 -17.792789 -2.9350791
37.96088 -8.0599222 -3.1269724
36.762203 -18.784164 4.0194693
