# .PCD v0.7 - Point Cloud Data file format
VERSION 0.7
FIELDS x y z
SIZE 4 4 4
TYPE F F F
COUNT 1 1 1
WIDTH 164
HEIGHT 1
VIEWPOINT 0 0 0 1 0 0 0
POINTS 164
DATA ascii
-42.240761 7.2045197 -1.5278147
-38.363052 7.3068657 2.6099167
-41.735615 6.8579998 0.25233507
-41.87521 7.9352684 0.46218419
-40.945267 6.8579998 2.7017493
-42.622173 6.8579998 0.11231133
-38.671413 7.2817969 0.044189159
-38.021709 6.8813791 2.9136758
-42.518089 7.2252545 -0.83160073
-37.753868 8.2499151 -0.51479518
-37.673813 7.6921792 1.5704328
-42.029709 6.8579998 0.41424942
-38.739601 8.5094471 -1.4382436
-41.009884 6.9578166 2.9602535
-38.27779 6.8579998 -2.385076
-42.337921 6.8579998 1.0133502
-39.963989 6.8579998 -2.3409331
-42.038929 6.8579998 1.0122269
-41.193295 6.8579998 0.78419936
-39.960045 7.9929914 0.59053916
-39.226158 6.8579998 2.4469311
-41.38026 8.037715 -1.3107907
-40.290359 7.624218 2.5079429
-42.313484 6.8579993 -0.98986083
-38.045341 7.6711349 -1.9750183
-37.509335 7.2640753 2.0358248
-39.143841 7.9988251 -0.21962249
-40.510139 6.8580003 -0.80572712
-41.837116 8.020155 0.031800818
-40.910561 7.7576423 -2.1044161
-42.5145 7.2225151 0.85378087
-39.889381 6.8579998 3.3067183
-38.067047 8.0602818 1.4613962
-42.467278 7.2037597 -1.0545803
-39.428802 6.9371567 -3.2724662
-36.846661 7.1863279 -1.1597412
-42.162678 7.0100579 -1.9868593
-42.585281 7.1992521 0.67784536
-41.118546 6.8579998 1.5649812
-42.068024 7.2968683 -1.6276095
-40.49614 6.8579998 1.8690635
-39.978901 7.7935743 -0.86602497
-41.943531 7.5322752 1.3827914
-37.411251 7.7645168 1.0003453
-42.164234 6.8579998 0.19471949
-39.730534 8.561759 -1.6451316
-40.077026 7.3477364 2.8344867
-41.394436 8.4177685 -0.39308199
-42.059021 7.7081075 -0.67265242
-39.967617 6.8579998 3.2700975
-42.941696 6.8579998 0.064646803
-39.565544 6.9953852 -0.86602497
-41.95871 7.1960301 -1.9423172
-42.34095 7.1612492 1.4379086
-41.325073 6.8580003 -0.1927935
-40.540668 7.0306377 -0.18227132
-36.358212 6.8579998 -0.58130974
-39.421616 6.8579998 2.2792406
-41.049412 8.7137928 -0.51395673
-38.197647 8.6045485 0.69024003
-41.834461 6.8579998 1.1339616
-38.987717 7.9936275 0.031063547
-39.462479 7.124588 3.0859256
-40.019238 7.4407616 -2.7487993
-37.821526 6.8579998 0.46522778
-37.164276 7.4753742 -1.1601868
-38.458046 6.8579998 2.1648476
-41.589596 6.8579998 1.6869643
-41.587688 8.1574183 0.6679883
-37.882256 7.0316334 2.6517966
-41.858639 7.6831102 1.2268233
-42.348015 7.5012922 -0.24526858
-37.507515 6.8579998 -0.013012142
-41.284039 6.8579998 0.65777737
-40.871941 7.4593449 -2.4670939
-39.087395 7.7447724 -0.76469576
-38.035286 8.4840879 0.6183511
-39.118137 8.4329395 1.6967001
-41.823914 7.0911007 -2.2410514
-39.829784 6.8579998 -1.2881043
-38.713913 6.8579998 -0.49121377
-41.319477 8.3468428 -0.81873727
-39.799889 8.1386871 2.0666318
-38.792042 6.8579998 1.1788068
-37.543228 6.8579998 0.40073586
-36.807487 7.2371101 -0.9036752
-38.647373 6.8579998 -2.3453979
-38.82312 7.6404505 0.3069531
-38.901161 6.8579998 0.96468776
-37.564686 7.512774 -1.7224666
-38.479916 6.8579998 -0.26653153
-40.128479 6.8579998 -2.5855885
-41.540367 6.8579998 1.2819487
-41.503151 7.5317202 1.9351537
-38.171356 6.8579998 -0.9547236
-38.363251 7.2919431 -2.6267295
-38.601364 6.8579998 2.7282281
-38.658749 7.5837517 2.4378922
-38.71524 6.8579998 -2.4661674
-40.277042 8.6134319 1.4651093
-42.375465 7.4753208 0.23151121
-38.548805 6.8579998 2.7707112
-40.190872 7.5226002 -0.78812999
-36.597534 6.8579998 -1.0557747
-38.801826 6.8579998 0.78113461
-42.060043 6.8579998 -0.99063069
-42.203205 6.8579998 -2.1379848
-40.553291 8.6889839 1.2185936
-42.366482 7.3070703 1.027334
-38.876007 7.8108363 -2.2749915
-41.626377 7.2345114 -2.2279344
-39.461353 6.8579998 -2.6437721
-38.534088 6.8579998 -0.53386617
-42.185658 7.205636 1.6165266
-41.826748 6.8579998 0.6974957
-37.803528 7.3425455 -2.2043386
-36.952183 7.0159311 -1.7293344
-38.8214 7.8449311 -0.30397856
-37.610809 6.8579998 0.44244856
-37.581089 7.651876 1.5158358
-40.209778 7.7935429 -0.75538903
-37.230701 7.5227466 1.1872542
-39.337769 7.4267659 -0.86602497
-42.208332 6.9671459 1.9988741
-38.797501 8.4288654 1.5656058
-41.833275 7.6376848 -1.3603449
-40.937531 7.41994 -2.4788461
-39.120434 7.9980078 -0.19195484
-39.343441 6.8579998 -3.040257
-40.598667 7.5969257 0.081814364
-39.554447 8.084753 2.1249843
-37.60001 7.3660846 -1.9822887
-39.151993 6.8579998 2.3816319
-40.646049 7.7218003 -2.2816141
-40.944378 7.2935438 2.6171322
-36.496464 6.9536414 0.85576475
-40.399185 7.5273857 -0.42732361
-39.91563 8.0442581 -2.150583
-41.619335 7.2813807 -2.1714673
-38.91404 6.8579993 -1.8811772
-37.156986 6.8579998 -1.8218287
-37.786121 7.1204548 -2.4747539
-42.088146 6.8579998 -0.33729458
-38.130005 6.8579998 2.0260878
-37.152771 7.0803976 1.902849
-37.769867 6.8579998 -0.44223815
-38.673355 7.7484164 -2.2645369
-40.551304 6.8579998 -3.1084051
-38.676907 8.5309219 -1.3704072
-40.432743 7.8595905 -2.2174993
-38.063076 6.8579998 2.4683604
-39.113903 6.8703723 0.81060636
-41.244301 7.405983 -2.3097825
-37.021767 7.1927958 -1.5014242
-39.686703 7.7441478 2.4684346
-36.690887 6.8579998 -0.98621786
-39.904716 6.8580003 -1.36552
-40.894073 6.9553676 -3.0138943
-37.692478 6.8579998 2.3052394
-41.78986 7.6615152 -1.3844002
-41.626724 7.5367956 1.8014977
-37.604408 7.3092175 2.0683248
-41.482323 8.0105448 1.2133877
-41.606331 6.8579998 -2.1915002
