# .PCD v0.7 - Point Cloud Data file format
VERSION 0.7
FIELDS x y z
SIZE 4 4 4
TYPE F F F
COUNT 1 1 1
WIDTH 285
HEIGHT 1
VIEWPOINT 0 0 0 1 0 0 0
POINTS 285
DATA ascii
-38.889275 9.1461096 -1.2839376
-40.033356 10.908855 1.4392278
-38.352077 7.8685913 1.9542384
-39.547821 7.2037382 -3.010355
-40.951847 13.896326 -0.71765155
-41.612396 6.8579998 1.8164481
-42.040016 6.8579998 0.031030741
-38.98074 6.8579998 -1.2724525
-41.009983 13.807031 0.59973252
-39.250099 6.8579998 -2.829283
-38.790802 6.8580003 2.623925
-36.659515 6.8579998 0.78633642
-41.944008 6.8579998 -0.20258006
-40.409229 6.8579998 1.2820644
-40.391281 6.8579998 -2.1071699
-40.75914 11.293839 0.99063092
-40.115063 14.691097 1.3702791
-38.26738 11.987903 -0.56673098
-40.659725 8.1460171 -1.7990353
-40.82251 13.961874 0.91470152
-39.256554 14.858 0.78468466
-41.125172 6.8579998 -2.8356018
-41.306847 6.8579998 1.8742766
-38.295921 10.396594 0.63178712
-37.446785 7.1762648 2.0980854
-39.066784 7.9979763 2.1369948
-38.741524 9.5331192 1.1847038
-40.968418 8.7865963 0.68738431
-39.984253 14.858 0.90439838
-40.262833 6.8579998 2.7958865
-39.616371 6.8579998 2.4677687
-37.514759 7.9452295 0.77352583
-38.202393 10.228467 -0.37024888
-38.156891 8.8872242 -0.066390991
-37.405296 6.9630418 2.3592722
-40.072186 14.858 1.0678582
-38.259686 7.9534593 1.7832825
-41.063324 11.437201 -0.46021855
-40.02047 9.9758224 -1.4424571
-39.46833 7.8055716 0.86602497
-39.567688 10.439504 1.4882147
-36.928486 6.8579998 1.5994365
-41.034245 6.8579998 0.66120636
-37.726616 7.4177132 2.0343876
-38.310455 10.226577 0.6612159
-39.4907 9.2089748 1.4820615
-39.480213 8.2083569 -1.995708
-40.742577 10.889526 1.0092943
-40.315609 9.681468 -1.3312109
-38.719658 11.157269 1.1673656
-41.068119 6.8579998 -2.261569
-41.377373 6.8579998 1.4912697
-39.168896 11.505146 1.4117414
-38.412132 10.923269 0.83579528
-40.538666 6.8579998 2.2437909
-40.175472 13.568262 -1.3929205
-41.135277 14.194405 -0.052001759
-39.344349 14.462073 -1.4593571
-39.664783 8.0178375 -2.1938272
-38.234509 11.501472 0.47799236
-38.679214 6.9735708 -3.0962634
-41.882286 6.8579998 -1.3624574
-39.150303 12.522078 1.4054313
-38.78508 8.6548138 -1.2933731
-38.260429 14.482385 -0.54880261
-39.54306 12.951138 -1.4866021
-38.418541 14.858 0.14671083
-40.53545 6.8579998 1.7176087
-40.048851 6.8579998 1.4614737
-40.682678 12.670658 1.0703559
-40.951683 10.034256 -0.71795893
-38.934883 11.747635 1.3095908
-40.958088 13.314235 -0.70628786
-39.010567 6.8579998 -2.5950789
-41.061195 8.5941668 0.77705431
-39.823219 11.530565 1.4796332
-42.027657 6.9462614 -2.2414467
-38.920082 13.968739 1.3014832
-38.447632 6.8579998 2.4719331
-41.135849 11.932624 0.025439553
-39.441132 7.61621 2.5894504
-38.611317 13.513556 -1.0725209
-42.108383 7.6907692 -0.54881954
-38.534264 14.090586 0.99244946
-40.030327 7.4727669 -2.7145524
-37.411804 7.9129262 0.54305816
-40.562645 9.2987089 -1.1749213
-38.163826 12.012962 0.15509951
-40.099003 6.8579998 -3.1748416
-40.069183 14.858 -0.55497825
-38.746323 9.5691557 -1.1882226
-38.63781 6.8579998 2.5472448
-40.849392 14.517535 0.87868798
-36.881176 7.2307963 -1.1252202
-40.091133 6.8579998 2.0239246
-41.00869 13.925554 -0.60267609
-37.790482 7.8834143 1.4079189
-40.585701 6.8579998 -1.4280589
-40.260521 6.8579998 3.1972029
-42.567574 6.8579998 0.25379232
-38.528152 6.8579998 2.4991813
-40.317062 10.592651 -1.3304942
-40.41478 11.019339 1.2764415
-38.504742 10.177077 0.95880455
-42.178299 7.0360379 -1.9246695
-39.572647 8.6113911 1.5958965
-37.956406 8.3265276 0.83266497
-38.365067 13.005712 -0.76169425
-38.193687 10.401209 -0.33477437
-39.980755 6.8579998 -1.3747615
-40.057751 7.24545 -2.9414451
-39.785423 12.547544 1.483775
-38.481346 9.0232182 -0.92971903
-38.497375 12.89048 -0.94969678
-41.130867 12.332498 -0.12738706
-39.059303 7.1428032 0.71603662
-39.407715 7.8404307 -0.86602497
-41.135406 11.654156 0.046039432
-36.607578 7.0045176 -1.0419129
-36.879059 7.2832956 0.97016472
-40.994934 11.079482 -0.63350654
-39.742977 11.528436 -1.4869797
-38.388309 10.730128 0.80003476
-38.477531 10.389277 0.92496979
-39.006577 6.888062 0.62471557
-39.659821 6.9064817 -0.86602497
-38.951088 11.87989 -1.3184671
-38.404438 13.898357 -0.82426715
-38.861347 10.849255 -1.2669907
-39.9786 6.8579998 1.5339725
-38.710854 14.858 -0.6279285
-40.573719 6.9997463 3.0801902
-41.436138 8.4032526 -0.24304965
-38.533092 14.221639 0.9911195
-41.788895 6.8579998 1.9232416
-38.490108 10.691139 -0.94063812
-40.167603 6.8579998 2.5045602
-40.739197 7.2496357 2.7568541
-38.405178 7.9777026 1.8578571
-38.668434 14.858 0.26754996
-36.482605 6.8598814 1.1259432
-39.703011 9.0623398 1.4892523
-40.606464 8.7849646 1.1396314
-41.961884 7.6457858 -1.1088731
-41.135956 12.135467 -0.020459164
-37.21183 7.6653748 0.75426131
-40.432129 12.631392 -1.265913
-41.271675 7.4712696 2.2091877
-42.79118 7.0705352 -0.050542995
-41.109024 9.8566179 -0.28249803
-40.054123 10.225988 -1.4331737
-39.249073 6.8579998 2.3159447
-41.026031 12.869907 -0.56235135
-40.21426 8.9386215 1.3778348
-40.066437 7.7536011 2.4234722
-39.310635 14.858 -0.65526521
-39.91787 8.4454041 -1.7429788
-38.452454 10.767043 -0.89244384
-40.57423 7.7825956 -0.12413823
-39.282265 6.8579998 2.6423056
-39.431873 11.094437 1.4747567
-39.950478 6.8973975 -0.86602497
-40.873302 12.951492 0.8452003
-40.937897 6.8579998 -2.2134104
-40.3255 8.6060696 1.4517494
-41.110931 12.8046 0.27283746
-40.357162 6.8579998 -1.5316851
-41.708809 6.8579998 -2.173434
-40.937691 10.848171 -0.74344897
-39.268101 6.8579998 1.7945484
-42.11554 6.9947953 -2.0700634
-38.115108 8.4090786 0.94820774
-39.698013 10.336176 1.4893615
-39.621159 13.145461 1.4899595
-40.356262 6.8579998 2.7606685
-36.4683 6.9739451 -0.64684343
-39.427834 14.858 0.50942767
-39.058567 12.323512 -1.3695867
-41.780338 7.1693645 -2.1739004
-38.534554 11.506819 -0.99278331
-40.180088 7.0634346 3.1076739
-38.967033 11.828008 -1.3266951
-38.331749 7.2939963 -2.6088991
-36.469742 6.8579998 0.7369749
-39.191452 9.335083 1.4193993
-41.392513 8.0252934 1.3151771
-38.74786 14.169701 -1.1893467
-39.183311 13.802234 -1.416636
-39.979652 11.490921 1.4524419
-39.777512 14.858 0.75485146
-38.278648 8.0184975 1.7147136
-39.091923 13.793287 -1.3834279
-40.099812 7.7728157 -2.3974423
-40.581024 10.547042 -1.1601983
-36.89106 6.8579993 0.48134968
-39.929901 14.858 -0.023985527
-37.350891 6.8579998 -0.11584496
-39.634552 6.8579998 1.1995854
-39.473843 14.378562 -1.4802163
-38.305904 6.8579998 1.1706142
-38.17741 13.482175 0.25499305
-37.526775 7.7439637 -1.2669678
-39.605713 10.325274 -1.4896221
-38.063343 6.8579998 0.26647851
-40.562328 10.084637 -1.1751769
-39.305931 14.858 -0.52122927
-39.636726 10.600183 -1.4902995
-41.938694 6.8579998 -0.41382897
-38.096973 8.6588669 -0.046911832
-38.389572 9.813282 0.8019982
-37.88147 6.8579998 -1.9469814
-41.053123 13.005461 -0.49026838
-38.937569 7.234632 2.8953421
-38.937889 6.8579998 -2.1153705
-40.463718 7.5692153 -0.31555215
-40.270233 14.022624 -1.3532981
-38.350338 12.523419 -0.73658097
-42.23579 6.8579998 -1.6493901
-39.440804 9.497942 -1.4761325
-41.960159 6.8579998 1.8992133
-40.822132 6.8579998 0.32858202
-41.133251 13.274755 0.091388211
-39.522598 12.930213 -1.4852623
-38.318062 13.727093 0.67662758
-41.213753 6.8579998 2.2347372
-41.12915 6.8579998 -2.1174581
-38.194984 10.337687 0.34006634
-39.982239 6.8579998 -3.2387652
-41.361229 7.4528637 -2.1641166
-41.136238 9.2025909 -0.0073272986
-41.514923 6.8579998 -2.2236147
-38.909714 6.8580003 -0.94911563
-40.057674 8.2822237 1.883907
-38.236679 13.367515 0.48437974
-38.471802 6.9365931 -3.0629473
-40.829819 10.595798 -0.90542054
-41.094849 13.373816 0.34808037
-42.288433 7.5690618 0.11937284
-38.402691 9.0982323 0.82165295
-36.684204 6.8579998 -1.3762249
-39.259274 10.363174 -1.4394687
-38.156029 11.631729 0.029160451
-40.254185 6.8579998 -3.0690184
-38.248875 9.5357742 0.51899612
-40.230343 7.295012 0.71976793
-40.534393 6.8579998 -1.7716607
-40.488781 14.858 0.80023801
-38.667099 11.649804 1.123637
-39.906219 6.8579998 1.0775056
-41.967834 7.5693426 1.2654611
-38.789845 10.810629 -1.2201046
-41.751137 6.8579998 0.21675779
-40.737312 6.8579998 -1.1658682
-40.942459 12.306005 0.73475492
-38.505226 7.176857 2.8168941
-38.33672 6.8579998 -1.2931174
-38.440807 13.890275 -0.87658352
-38.206631 7.597188 2.18505
-38.93185 6.8579998 1.6865475
-38.182831 10.380921 -0.2830773
-40.277313 7.5718637 -0.6384083
-39.718525 9.0341339 1.4885806
-37.576385 7.3409338 -1.9941608
-41.112598 6.8579998 1.0448166
-42.758369 7.0270987 -0.69822365
-41.328022 6.8579998 0.7521522
-40.926392 10.520131 0.762254
-38.214096 9.9213057 -0.41286334
-38.829567 6.8579998 2.5495269
-38.159187 10.890018 -0.10113407
-40.626892 7.7904577 -2.214668
-40.729771 14.645122 -1.0226582
-39.247646 13.320345 -1.4360794
-36.903484 7.0963378 1.4873364
-38.934608 11.638871 -1.3094389
-38.540443 12.087577 -0.99949455
-38.656666 6.8579998 0.90826273
-38.902287 14.002406 -1.2917348
-40.29694 6.8579998 -2.4925027
-40.214699 14.802073 1.2107031
-40.097046 9.8510132 -1.4205199
-39.463787 13.004074 1.4791162
-39.474716 6.8579998 1.9165473
-38.774025 7.4227095 -0.22191054
-40.818226 8.8361187 -0.92003727
