# .PCD v0.7 - Point Cloud Data file format
VERSION 0.7
FIELDS x y z
SIZE 4 4 4
TYPE F F F
COUNT 1 1 1
WIDTH 159
HEIGHT 1
VIEWPOINT 0 0 0 1 0 0 0
POINTS 159
DATA ascii
-39.917782 8.2791929 -1.9119778
-36.756279 6.8579993 -1.4909326
-38.343151 7.8150263 -2.0129988
-38.386086 6.9513426 -3.0131986
-41.455097 6.8579998 2.7059739
-38.487717 7.1913538 2.7944241
-41.4039 6.8579998 -1.6040233
-41.237583 8.0564003 -1.4533485
-37.971798 6.8899746 -2.8758426
-40.585854 8.5698957 -1.3431091
-40.770378 6.8579998 -2.1233003
-38.675293 7.9801731 2.00951
-38.939453 7.800952 2.3061101
-37.282879 7.2389841 -1.8107919
-41.613701 8.0358524 0.9286145
-37.698715 6.8579998 2.5445669
-40.51712 6.8579998 -2.6384957
-41.1633 7.825593 1.842752
-40.792671 7.9816217 -1.9126856
-39.865986 6.8579998 2.93432
-41.225716 8.2049141 -1.2360401
-37.930122 8.0941725 1.2402197
-41.630913 7.7877073 1.3937372
-41.141987 8.3992701 1.0196015
-39.631847 6.9201517 -3.297224
-40.397457 6.8579998 -2.5392981
-39.885647 6.8579998 3.173609
-36.950611 6.8579998 -1.227092
-39.235703 7.0152745 -3.1753764
-37.885437 7.918252 -1.4711558
-36.904121 7.3614035 -0.79012859
-38.333378 8.511939 -1.076169
-41.938995 6.8588271 -2.4539928
-39.626976 6.8579998 2.0001049
-41.613396 8.0754328 -0.83161628
-39.070183 7.0230045 -3.1414397
-37.498974 7.4668193 -1.7143792
-36.552242 6.8754072 1.2646976
-41.665272 6.8579998 -1.3079522
-39.129326 8.664566 1.4550139
-38.732788 7.135613 -2.9422708
-38.243237 8.3918848 1.1566005
-42.903286 6.9458127 -0.3023499
-42.917423 6.9359884 -0.24923539
-39.699593 6.8579998 0.95574927
-41.64682 6.8579998 -0.9350518
-37.863682 6.8579998 -1.3662425
-40.454739 7.9194369 -2.1453125
-38.514324 7.0541821 2.9527011
-39.457615 6.994379 -3.2167308
-41.507545 8.0001192 1.194507
-42.494244 7.3549719 0.26062596
-42.282139 7.2445951 -1.3708626
-42.39695 7.2974148 -0.9725278
-41.268433 6.8579998 -0.22133191
-37.878334 6.8579993 0.57198954
-40.177673 7.7381063 -0.81099021
-39.659153 7.3967972 -2.8181615
-41.205341 7.4076948 -2.3337398
-38.830292 6.9474068 -0.31937617
-42.717575 7.131753 -0.28176612
-37.216347 7.7264013 0.5317412
-41.733437 8.0516758 0.55532497
-38.343025 7.7480602 -2.0925195
-39.211609 7.9582047 2.2114015
-38.214767 7.4142313 2.4070754
-40.559536 7.5524616 -0.14959048
-42.529747 6.9631805 1.5075626
-41.238728 6.8579998 2.7095079
-37.091599 6.8579998 1.8632561
-38.127159 7.5982876 2.129411
-42.297394 6.8579998 -1.5211458
-40.801414 6.8579998 -1.4781414
-42.343315 7.3343515 -1.0112716
-41.811928 8.0449648 0.043270871
-42.625786 7.234077 0.096878491
-41.894035 7.9410067 0.32143527
-39.175983 7.9484024 0.86602497
-39.78117 8.0279989 -2.1793218
-40.923836 8.0617924 -1.7284243
-40.715809 6.8579998 -2.663296
-42.097565 7.4025288 -1.3774719
-38.097115 8.5008049 -0.72209007
-36.945885 7.4870491 -0.38485369
-42.525932 7.2361689 -0.76438141
-39.917717 6.8579998 2.7431068
-37.564739 7.9141397 -0.97541356
-37.125744 7.5207186 -0.9503808
-39.171345 7.4176712 0.86602497
-38.891872 6.9232273 -3.2063088
-41.706177 6.8579998 -2.1647925
-41.411705 6.8579998 -2.4941893
-41.237068 8.108736 -1.3741974
-38.019424 6.8579998 1.7132188
-37.992359 8.3904581 0.75931382
-42.562531 6.8579998 1.6396811
-36.941528 6.8579998 -0.84619987
-39.738888 6.8579998 -1.2101688
-39.779629 6.8579998 3.1133642
-38.69371 6.9759655 -3.09798
-37.772781 6.8579998 -1.4836135
-36.716732 7.1311703 -0.96751094
-36.786507 6.8579998 -1.3238567
-37.550232 8.114295 -0.074578002
-40.290424 7.1230526 -0.61570555
-40.347595 6.8579998 -1.8685651
-40.283035 8.2471457 -1.8570511
-40.081154 7.7506371 -2.4238794
-42.354477 6.8579998 1.4056909
-41.251831 8.5327482 -0.48069727
-42.178265 6.8579998 -0.28136849
-42.045887 7.2140298 1.8027612
-39.92186 6.8579998 -2.7731936
-41.083565 7.6788921 -2.087357
-37.911072 8.0943356 1.2139449
-40.402599 6.8579998 2.8598084
-41.747238 8.0903816 -0.28850949
-38.344059 8.0968084 -1.6662923
-41.920746 7.9351082 -0.10519396
-39.749332 7.061852 -3.1528494
-42.739708 7.0904694 0.44532883
-39.014267 7.3574386 -0.63802767
-41.587486 6.8579998 -2.626574
-41.801445 7.2677784 2.0105443
-40.611248 6.8930736 -0.060023837
-37.676292 6.8579998 0.1127846
-42.079536 6.8579998 1.9821055
-39.986446 7.1786966 0.86602503
-37.500084 6.8579998 0.60193574
-42.711914 7.142375 -0.21375713
-42.263287 6.8579998 0.54359496
-39.130524 7.8246493 0.83938938
-38.433052 6.8579998 -0.86550468
-37.730724 7.569582 1.823153
-38.250599 8.2476978 -1.3808084
-41.506668 8.3091602 0.38929176
-39.857479 7.226387 -2.9815621
-37.602589 6.8579998 2.2810688
-41.636036 8.2185049 -0.094897136
-41.678268 7.7718687 -1.351779
-42.147915 7.7027082 -0.20950386
-40.619148 7.7034593 -2.3135862
-38.621033 8.1396008 -1.8003647
-40.655582 7.7362628 -2.2615433
-39.888809 7.621726 -2.5806465
-42.619995 7.1445303 0.7673955
-39.300056 7.5112429 -0.86602497
-40.375694 8.4815178 1.5665174
-41.285027 8.3015575 -0.97788924
-41.209167 6.8579998 -2.165729
-39.759178 6.8579998 1.2590846
-40.576416 7.9501882 0.120355
-38.78027 7.8109341 -2.2402096
-40.593033 8.6655741 -1.2180779
-37.775276 6.8579998 1.3268993
-41.373611 6.8579998 0.082774051
-39.978279 7.0716219 0.86602497
-39.80439 7.9629641 2.2432947
-37.134575 6.8579998 -2.2148414
