# .PCD v0.7 - Point Cloud Data file format
VERSION 0.7
FIELDS x y z
SIZE 4 4 4
TYPE F F F
COUNT 1 1 1
WIDTH 126
HEIGHT 1
VIEWPOINT 0 0 0 1 0 0 0
POINTS 126
DATA ascii
-38.401943 12.32136 -0.82053095
-39.312767 9.6162386 -1.4525939
-40.166195 13.951932 1.396528
-40.231915 10.082922 1.3701667
-40.551945 10.247148 -1.1834106
-39.906845 13.202353 1.4674332
-40.070862 10.480155 1.4282942
-38.38282 10.43512 -0.79098183
-40.756523 13.007519 0.99360657
-41.10524 12.340618 0.30165732
-39.359291 13.701237 -1.462329
-39.974186 13.807158 -1.4537778
-39.97258 12.195143 1.4541719
-39.637486 10.122612 -1.4903162
-38.193905 14.632727 0.33565971
-40.987972 10.483146 -0.64765048
-40.799835 10.030114 0.94295025
-38.22551 13.601288 -0.45147735
-39.082012 14.49844 -1.3795719
-38.52832 12.685905 -0.9856782
-38.157253 12.071298 -0.071892306
-41.10767 9.8499289 -0.28934726
-38.164856 12.796986 -0.16458899
-40.449436 14.649114 -1.2552429
-39.051605 10.877666 1.3665209
-40.703747 13.574792 1.0498219
-40.975201 13.626493 0.67360222
-41.025673 12.988754 -0.56326568
-38.278877 10.163109 0.59328759
-38.17091 13.525897 0.21280327
-40.99292 8.8298931 0.63759547
-39.74057 10.274826 1.4871368
-38.207855 12.319935 0.39145142
-40.639259 13.970221 1.1108712
-40.991985 11.540487 0.63949299
-38.155724 11.381736 -0.015057863
-39.982834 10.283515 1.4516625
-39.640438 11.521933 1.4903806
-40.283779 12.270218 1.3469132
-38.9347 12.238629 1.309491
-40.939907 14.259803 0.73940521
-39.379421 13.698216 -1.466333
-38.941494 14.018616 1.3132107
-38.377083 12.12106 -0.78151166
-39.976963 9.7721443 -1.4530993
-39.410011 13.001784 -1.4713892
-41.055054 11.286102 -0.48458499
-39.149815 12.804925 -1.4052657
-39.420551 11.651627 1.4730128
-38.677662 9.5995617 1.1329002
-39.735252 12.599049 -1.4874855
-39.534443 10.10288 -1.486038
-38.747303 9.6993647 -1.1889398
-40.925644 11.196523 -0.76348865
-40.691525 13.00016 -1.0618749
-41.029007 11.391848 0.55470657
-38.426708 9.0889826 0.85737598
-40.89043 12.977778 0.81961876
-41.117802 14.218577 -0.23218645
-39.639587 10.267479 1.4903619
-38.897396 14.65384 1.2835537
-39.006271 13.021368 -1.3460523
-38.398735 10.456518 0.81572151
-39.507633 12.860511 -1.4839145
-39.733665 12.264721 1.487589
-38.403782 9.4272089 0.82328486
-38.191357 8.911397 0.32528573
-39.534256 9.9505625 1.4860253
-40.270828 11.581595 1.3530369
-40.971985 11.4027 -0.68013549
-41.133614 11.171711 0.085901991
-38.821224 12.070676 1.2411669
-39.152077 11.674379 1.4060326
-40.564114 13.73342 1.1737458
-38.169609 13.436434 0.20434645
-39.656849 14.476537 1.4902608
-39.71645 13.58635 -1.4887164
-41.132103 11.398203 -0.10870475
-38.228844 10.958216 0.46129358
-38.870613 11.579918 1.2726097
-40.194759 11.972355 -1.3854182
-38.498817 13.902265 0.95148915
-40.652927 13.324205 -1.0988845
-40.855423 11.321283 -0.870453
-40.36731 13.855315 -1.3038659
-38.157467 13.952684 -0.075080827
-40.772583 8.857336 0.97530293
-40.074791 13.039986 1.4271486
-39.091957 13.354256 -1.3834404
-39.556232 11.492595 -1.4874648
-38.215469 10.708436 -0.41757572
-39.73465 14.586034 1.4875249
-39.981777 11.78792 1.4519222
-40.272125 10.845404 -1.3524657
-40.477245 13.788057 -1.2366769
-38.836781 14.858 0.90579659
-38.361423 14.624401 0.75568283
-38.162834 14.315454 0.14593443
-39.890171 9.7383585 -1.4700947
-38.973461 9.6485767 -1.3298663
-38.845646 14.146252 1.2574589
-41.086037 13.056035 -0.38399124
-39.883919 13.719238 -1.4710572
-40.845757 11.572956 0.88365304
-40.985161 11.822285 -0.65336561
-38.973179 10.834211 -1.3297274
-38.548416 11.958952 1.0084515
-38.7416 8.9634457 -1.1847599
-38.593933 11.045534 1.055884
-39.213772 14.035665 1.4262053
-41.13224 11.153109 0.10661655
-40.131096 8.9827328 1.4089618
-38.27095 11.33392 0.57527268
-39.529324 11.605893 -1.4857025
-38.722309 11.188479 -1.169492
-40.908451 11.551373 -0.79185134
-38.250309 11.079249 -0.52270603
-38.546402 8.7275133 1.0062846
-38.203766 9.7563324 0.37584531
-38.694366 12.355516 1.1470622
-39.180107 14.858 0.75515532
-38.165012 13.809894 -0.16607359
-38.246834 14.704613 0.31939593
-40.388588 12.47263 1.2921896
-38.233086 14.361109 0.4737913
-40.268143 11.265455 -1.354219
