# .PCD v0.7 - Point Cloud Data file format
VERSION 0.7
FIELDS x y z
SIZE 4 4 4
TYPE F F F
COUNT 1 1 1
WIDTH 131
HEIGHT 1
VIEWPOINT 0 0 0 1 0 0 0
POINTS 131
DATA ascii
-41.135712 8.944521 -0.031912629
-41.135082 11.066364 -0.061015859
-39.166885 14.858 0.39348355
-40.767334 9.9303341 -0.98128688
-39.431282 8.0157232 -0.41157183
-38.459034 14.338344 0.90140742
-38.944019 14.858 0.72355437
-40.654522 14.858 -0.53384316
-38.267365 10.547028 -0.56668973
-38.900063 9.5105 1.2904845
-38.329559 11.014009 0.69872546
-39.156246 14.844334 -1.1992478
-41.136246 12.654853 0.0070362864
-41.066898 12.846299 -0.44967464
-39.31834 10.357523 1.4539568
-41.001129 10.612661 -0.6198498
-38.156673 13.493777 0.059201289
-39.092415 7.9640369 0.67832774
-40.87793 12.934827 -0.83828902
-39.923065 9.8900928 -1.4642076
-39.750816 9.4008646 -1.4864661
-40.667927 14.857999 -0.71601385
-38.232944 10.218496 -0.47337198
-38.566849 8.7712526 1.0277352
-38.571301 9.055789 -1.0323875
-38.383125 9.9122887 0.791484
-38.612595 14.858 -0.088650897
-39.802094 13.535331 -1.4819481
-38.82851 9.6791067 -1.2460409
-39.854401 14.858 -0.31531852
-38.664238 11.559842 -1.1211269
-39.933235 14.858 0.30546084
-40.475311 10.013302 1.2379684
-39.969765 13.453068 -1.4548607
-38.760857 14.688433 1.1502622
-38.235897 12.588985 -0.48207951
-40.663181 12.617546 -1.0890522
-38.814346 10.893217 1.2365646
-38.509716 9.7269783 -0.96447402
-39.069176 7.9847722 -0.3115842
-40.12989 14.858 -0.20701718
-41.094341 11.220636 0.35014725
-38.32254 14.167234 -0.68569076
-38.25042 9.0067749 0.52298391
-40.267735 10.29527 -1.3543996
-40.7318 14.858 -0.20755929
-40.570641 14.800407 -0.96851647
-40.565968 13.748848 1.1722617
-41.121754 12.416601 -0.20652843
-39.313705 13.666312 1.4528223
-40.037464 14.130996 -1.4380292
-40.001968 11.918306 1.4469825
-39.540665 13.732836 1.4864453
-40.875549 9.3744879 0.84183896
-40.964725 14.789438 0.28989738
-39.53986 9.9630318 1.4863923
-38.843838 12.271648 1.2562932
-40.872292 13.07646 0.84671104
-41.132793 13.469247 -0.098282441
-38.78088 9.6676826 1.2135376
-41.123657 12.272511 0.19402677
-40.434204 12.089125 1.2646552
-38.219234 11.020072 0.43048504
-39.819466 13.145005 1.4800441
-39.174477 9.9486065 1.413637
-38.485279 14.126259 -0.93461919
-40.290352 11.488652 -1.3436704
-38.159454 10.606075 0.10512204
-38.734341 13.359034 -1.1791527
-38.215973 13.594246 -0.41929182
-41.10178 9.8574591 0.31917962
-40.661407 10.082762 -1.0907536
-39.64846 12.103628 1.4904442
-40.540302 9.3089123 1.1919564
-41.128704 12.392246 0.14807256
-40.532192 12.004382 -1.1979096
-38.567696 11.628864 1.0286193
-40.725708 9.9912415 -1.0268971
-39.910549 9.0737247 1.4666966
-39.164787 14.858 0.51557237
-41.008522 12.647482 0.60305882
-38.794479 14.055659 1.2232783
-40.146793 13.30826 -1.4036329
-39.417358 12.54768 1.4725218
-41.117458 10.400105 0.23442125
-39.672211 9.7717056 -1.4899251
-39.821518 8.0338287 -0.23387273
-39.999985 13.595543 -1.4474688
-39.994743 14.858 -1.1877766
-40.591179 12.113621 -1.1520605
-38.155704 12.228991 -0.014169
-38.179703 13.392752 0.26736426
-41.103073 13.965862 -0.3126128
-38.584099 10.867491 1.0457779
-40.413815 13.021996 -1.2770255
-40.365635 13.278154 -1.3047833
-39.281536 12.148622 1.4449537
-40.976322 10.702721 0.67132497
-41.113369 14.520681 0.26051092
-40.133327 10.872159 -1.4082046
-38.737888 13.542991 -1.1820028
-38.226852 14.492682 0.45543912
-40.666969 13.642572 -1.0854203
-40.587662 13.492803 1.1548802
-38.702667 14.858 -0.8555755
-40.58873 11.61165 1.1540248
-38.220104 12.556044 -0.43346807
-41.095039 11.190247 -0.34731579
-38.554871 10.524212 1.0152059
-38.522919 11.530849 0.97952342
-38.26997 14.345695 -0.57305658
-38.314545 9.1536217 -0.66949677
-38.886726 11.748489 -1.2823908
-38.576012 10.292204 -1.0373179
-41.129147 13.009552 0.14405392
-40.94017 9.1713324 -0.7389307
-39.809868 10.582791 1.4810961
-40.177505 7.9789662 -0.48115832
-40.731537 13.076987 -1.0208099
-39.261551 10.199169 1.4400645
-39.530949 14.25605 1.4858088
-39.937889 13.308814 -1.4612585
-38.259811 9.5107002 0.54721493
-39.249386 14.858 -0.82071453
-38.795937 9.9595737 1.2242508
-38.155563 13.375591 -0.0076942611
-40.985409 14.618764 -0.65286005
-39.933372 10.064513 -1.4621575
-40.649387 14.858 0.10555661
-39.277248 11.486003 -1.4439052
-39.804558 14.47568 1.4816777
