# .PCD v0.7 - Point Cloud Data file format
VERSION 0.7
FIELDS x y z
SIZE 4 4 4
TYPE F F F
COUNT 1 1 1
WIDTH 578
HEIGHT 1
VIEWPOINT 0 0 0 1 0 0 0
POINTS 578
DATA ascii
7.5546298 -19.049999 0
7.5599198 -19.049999 -0.24236
7.5546298 -15.621 0
7.5599198 -15.621 0.24236
9.7377596 -15.621 0
7.5757699 -19.049999 -0.48425901
7.5599198 -19.049999 0.24236
7.5599198 -15.621 -0.24236
9.7409697 -15.621 -0.14713299
7.5757699 -15.621 0.48425901
7.60216 -19.049999 -0.725236
7.5757699 -19.049999 0.48425901
7.5757699 -15.621 -0.48425901
9.7505903 -15.621 -0.29398701
7.60216 -15.621 0.725236
7.63904 -19.049999 -0.96483302
7.60216 -19.049999 0.725236
7.60216 -15.621 -0.725236
9.7666101 -15.621 -0.440281
7.63904 -15.621 0.96483302
7.6863298 -19.049999 -1.20259
7.63904 -19.049999 0.96483302
7.63904 -15.621 -0.96483302
9.7889996 -15.621 -0.58573598
7.6863298 -15.621 1.20259
7.7439499 -19.049999 -1.43806
7.6863298 -19.049999 1.20259
7.6863298 -15.621 -1.20259
9.8177099 -15.621 -0.73007703
7.7439499 -15.621 1.43806
7.81179 -19.049999 -1.6708
7.7439499 -19.049999 1.43806
7.7439499 -15.621 -1.43806
9.8526897 -15.621 -0.87302798
7.81179 -15.621 1.6708
7.8897099 -19.049999 -1.90035
7.81179 -19.049999 1.6708
7.81179 -15.621 -1.6708
9.8938799 -15.621 -1.01432
7.8646898 -19.049999 1.82663
7.8897099 -15.621 1.90035
7.9775701 -19.049999 -2.1262801
7.8897099 -19.049999 1.90035
7.8897099 -15.621 -1.90035
9.9411802 -15.621 -1.15368
7.9775701 -15.621 2.1262801
8.0752096 -19.049999 -2.34817
7.9775701 -19.049999 2.1262801
7.9775701 -15.621 -2.1262801
9.9945202 -15.621 -1.29084
8.0752096 -15.621 2.34817
8.1824198 -19.049999 -2.5655899
8.0752096 -19.049999 2.34817
8.0752096 -15.621 -2.34817
10.0538 -15.621 -1.42554
8.1824198 -15.621 2.5655899
8.2990198 -19.049999 -2.77812
8.1824198 -19.049999 2.5655899
8.1824198 -15.621 -2.5655899
10.1189 -15.621 -1.55753
8.2990198 -15.621 2.77812
8.4247799 -19.049999 -2.9853699
8.2990198 -19.049999 2.77812
8.2990198 -15.621 -2.77812
10.1897 -15.621 -1.68656
8.4247799 -15.621 2.9853699
8.5594597 -19.049999 -3.1869299
8.4247799 -19.049999 2.9853699
8.4247799 -15.621 -2.9853699
10.266 -15.621 -1.81238
8.5594597 -15.621 3.1869299
8.7028103 -19.049999 -3.3824301
8.5594597 -19.049999 3.1869299
8.5594597 -15.621 -3.1869299
10.3478 -15.621 -1.9347399
8.7028103 -15.621 3.3824301
8.8545399 -19.049999 -3.57149
8.7028103 -19.049999 3.3824301
8.7028103 -15.621 -3.3824301
10.4348 -15.621 -2.0534301
8.8545399 -15.621 3.57149
9.0143805 -19.049999 -3.7537501
8.8545399 -19.049999 3.57149
8.8545399 -15.621 -3.57149
10.5269 -15.621 -2.1682
9.0143805 -15.621 3.7537501
9.1820202 -19.049999 -3.9288599
9.0143805 -19.049999 3.7537501
9.0143805 -15.621 -3.7537501
10.624 -15.621 -2.2788501
9.1820202 -15.621 3.9288599
9.3571301 -19.049999 -4.0964999
9.1820202 -19.049999 3.9288599
9.1820202 -15.621 -3.9288599
10.7257 -15.621 -2.38516
9.3571301 -15.621 4.0964999
9.5393896 -19.049999 -4.25633
9.3571301 -19.049999 4.0964999
9.3571301 -15.621 -4.0964999
10.832 -15.621 -2.4869201
9.5393896 -15.621 4.25633
9.7284498 -19.049999 -4.4080701
9.5393896 -19.049999 4.25633
9.5393896 -15.621 -4.25633
10.9427 -15.621 -2.5839601
9.7284498 -15.621 4.4080701
9.9239397 -19.049999 -4.5514102
9.7284498 -19.049999 4.4080701
9.7284498 -15.621 -4.4080701
11.0575 -15.621 -2.67608
9.9239397 -15.621 4.5514102
9.7377596 -12.7 0
9.7409697 -15.621 0.14713299
9.7409697 -12.7 0.14713299
9.7409697 -12.7 -0.14713299
9.7505903 -15.621 0.29398701
9.7505903 -12.7 0.29398701
9.7505903 -12.7 -0.29398701
9.7666101 -15.621 0.440281
9.7666101 -12.7 0.440281
9.7666101 -12.7 -0.440281
9.7889996 -15.621 0.58573598
9.7889996 -12.7 0.58573598
9.7889996 -12.7 -0.58573598
9.8177099 -15.621 0.73007703
9.8177099 -12.7 0.73007703
9.8177099 -12.7 -0.73007703
9.8526897 -15.621 0.87302798
9.8526897 -12.7 0.87302798
9.8526897 -12.7 -0.87302798
9.8938799 -15.621 1.01432
9.8938799 -12.7 1.01432
9.8938799 -12.7 -1.01432
9.9411802 -15.621 1.15368
9.9411802 -12.7 1.15368
10.1255 -19.049999 -4.68609
9.9239397 -19.049999 4.5514102
9.9239397 -15.621 -4.5514102
11.1761 -15.621 -2.7630999
10.1255 -15.621 4.68609
9.9411802 -12.7 -1.15368
9.9945202 -15.621 1.29084
9.9945202 -12.7 1.29084
9.9945202 -12.7 -1.29084
10.0538 -15.621 1.42554
10.0538 -12.7 1.42554
10.0538 -12.7 -1.42554
10.1189 -15.621 1.55753
10.1189 -12.7 1.55753
10.1189 -12.7 -1.55753
10.1897 -15.621 1.68656
10.1897 -12.7 1.68656
10.3328 -19.049999 -4.8118501
10.1255 -19.049999 4.68609
10.1255 -15.621 -4.68609
11.2985 -15.621 -2.8448601
10.3328 -15.621 4.8118501
10.1897 -12.7 -1.68656
10.266 -15.621 1.81238
10.266 -12.7 1.81238
10.266 -12.7 -1.81238
10.3478 -15.621 1.9347399
10.3478 -12.7 1.9347399
10.5453 -19.049999 -4.9284501
10.3328 -19.049999 4.8118501
10.3328 -15.621 -4.8118501
11.4243 -15.621 -2.9212101
10.5453 -15.621 4.9284501
10.3478 -12.7 -1.9347399
10.4348 -15.621 2.0534301
10.4348 -12.7 2.0534301
10.4348 -12.7 -2.0534301
10.5269 -15.621 2.1682
10.5269 -12.7 2.1682
10.5269 -12.7 -2.1682
10.624 -15.621 2.2788501
10.624 -12.7 2.2788501
10.7627 -19.049999 -5.0356698
10.5453 -19.049999 4.9284501
10.5453 -15.621 -4.9284501
11.5533 -15.621 -2.9919901
10.7627 -15.621 5.0356698
10.624 -12.7 -2.2788501
10.7257 -15.621 2.38516
10.7257 -12.7 2.38516
10.7257 -12.7 -2.38516
10.832 -15.621 2.4869201
10.832 -12.7 2.4869201
10.9846 -19.049999 -5.1333098
10.7627 -19.049999 5.0356698
10.7627 -15.621 -5.0356698
11.6853 -15.621 -3.05708
10.9846 -15.621 5.1333098
10.832 -12.7 -2.4869201
10.9427 -15.621 2.5839601
10.9427 -12.7 2.5839601
10.9427 -12.7 -2.5839601
11.0575 -15.621 2.67608
11.0575 -12.7 2.67608
11.2105 -19.049999 -5.2211699
10.9846 -19.049999 5.1333098
10.9846 -15.621 -5.1333098
11.82 -15.621 -3.1163599
11.2105 -15.621 5.2211699
11.0575 -12.7 -2.67608
11.1761 -15.621 2.7630999
11.1761 -12.7 2.7630999
11.1761 -12.7 -2.7630999
11.2985 -15.621 2.8448601
11.2985 -12.7 2.8448601
11.4401 -19.049999 -5.2990899
11.2105 -19.049999 5.2211699
11.2105 -15.621 -5.2211699
11.9572 -15.621 -3.1696999
11.4401 -15.621 5.2990899
11.2985 -12.7 -2.8448601
11.4243 -15.621 2.9212101
11.4243 -12.7 2.9212101
11.4243 -12.7 -2.9212101
11.5533 -15.621 2.9919901
11.5533 -12.7 2.9919901
11.6728 -19.049999 -5.36693
11.4401 -19.049999 5.2990899
11.4401 -15.621 -5.2990899
12.0966 -15.621 -3.217
11.6728 -15.621 5.36693
11.5533 -12.7 -2.9919901
11.6853 -15.621 3.05708
11.6853 -12.7 3.05708
11.9083 -19.049999 -5.42454
11.6728 -19.049999 5.36693
11.6728 -15.621 -5.36693
12.2379 -15.621 -3.2581799
11.9083 -15.621 5.42454
11.6853 -12.7 -3.05708
11.82 -15.621 3.1163599
11.82 -12.7 3.1163599
11.82 -12.7 -3.1163599
11.9572 -15.621 3.1696999
11.9572 -12.7 3.1696999
12.146 -19.049999 -5.4718399
11.9083 -19.049999 5.42454
11.9083 -15.621 -5.42454
12.3808 -15.621 -3.29316
11.9572 -12.7 -3.1696999
12.0966 -15.621 3.217
12.0966 -12.7 3.217
12.0966 -12.7 -3.217
12.2379 -15.621 3.2581799
12.2379 -12.7 3.2581799
12.3856 -19.049999 -5.5087199
12.146 -19.049999 5.4718399
12.146 -15.621 -5.4718399
12.5251 -15.621 -3.3218701
12.146 -15.621 5.4718399
12.2379 -12.7 -3.2581799
12.3808 -15.621 3.29316
12.3808 -12.7 3.29316
12.3808 -12.7 -3.29316
12.5251 -15.621 3.3218701
12.5251 -12.7 3.3218701
12.6266 -19.049999 -5.53511
12.3856 -19.049999 5.5087199
12.3856 -15.621 -5.5087199
12.6706 -15.621 -3.34426
12.3856 -15.621 5.5087199
12.5251 -12.7 -3.3218701
12.6706 -15.621 3.34426
12.6706 -12.7 3.34426
12.6266 -15.621 -5.53511
12.8685 -19.049999 -5.5509601
12.6266 -19.049999 5.53511
12.8169 -15.621 -3.36028
12.6266 -15.621 5.53511
12.6706 -12.7 -3.34426
12.8169 -12.7 3.36028
12.8169 -12.7 -3.36028
12.8169 -15.621 3.36028
12.9637 -12.7 3.36991
12.8685 -15.621 -5.5509601
13.1109 -19.049999 -5.5562501
12.8685 -19.049999 5.5509601
12.9637 -15.621 -3.36991
12.8685 -15.621 5.5509601
12.9637 -12.7 -3.36991
12.9637 -15.621 3.36991
13.1109 -12.7 3.3731201
13.1109 -15.621 -5.5562501
13.3532 -19.049999 -5.5509601
13.1109 -19.049999 5.5562501
13.1109 -15.621 -3.3731201
13.1109 -12.7 -3.3731201
13.1109 -15.621 5.5562501
13.1109 -15.621 3.3731201
13.258 -12.7 3.36991
13.258 -12.7 -3.36991
13.258 -15.621 -3.36991
13.258 -15.621 3.36991
13.3532 -15.621 5.5509601
13.4049 -12.7 3.36028
13.3532 -15.621 -5.5509601
13.5951 -15.621 -5.53511
13.5951 -19.049999 -5.53511
13.3532 -19.049999 5.5509601
13.4049 -15.621 -3.36028
13.4049 -12.7 -3.36028
13.4049 -15.621 3.36028
13.5951 -15.621 5.53511
13.5512 -12.7 3.34426
13.5512 -12.7 -3.34426
13.5512 -15.621 -3.34426
13.5512 -15.621 3.34426
13.8361 -15.621 5.5087199
13.6966 -12.7 3.3218701
13.8361 -15.621 -5.5087199
13.8361 -19.049999 -5.5087199
13.5951 -19.049999 5.53511
13.6966 -12.7 -3.3218701
13.6966 -15.621 -3.3218701
13.841 -15.621 -3.29316
13.6966 -15.621 3.3218701
14.0757 -15.621 5.4718399
13.841 -12.7 3.29316
14.0757 -15.621 -5.4718399
14.0757 -19.049999 -5.4718399
13.8361 -19.049999 5.5087199
13.841 -12.7 -3.29316
13.9839 -15.621 -3.2581799
13.841 -15.621 3.29316
14.3135 -15.621 5.42454
13.9839 -12.7 3.2581799
13.9839 -12.7 -3.2581799
14.1252 -15.621 -3.217
13.9839 -15.621 3.2581799
14.5489 -15.621 5.36693
14.1252 -12.7 3.217
14.3135 -15.621 -5.42454
14.3135 -19.049999 -5.42454
14.0757 -19.049999 5.4718399
14.1252 -12.7 -3.217
14.2646 -15.621 -3.1696999
14.1252 -15.621 3.217
14.7817 -15.621 5.2990899
14.2646 -12.7 3.1696999
14.2646 -12.7 -3.1696999
14.4017 -15.621 -3.1163599
14.2646 -15.621 3.1696999
15.0112 -15.621 5.2211699
14.4017 -12.7 3.1163599
14.5489 -15.621 -5.36693
14.5489 -19.049999 -5.36693
14.3135 -19.049999 5.42454
14.4017 -12.7 -3.1163599
14.5364 -15.621 -3.05708
14.4017 -15.621 3.1163599
15.2372 -15.621 5.1333098
14.5364 -12.7 3.05708
14.5364 -12.7 -3.05708
14.6684 -15.621 -2.9919901
14.5364 -15.621 3.05708
15.4591 -15.621 5.0356698
14.6684 -12.7 2.9919901
14.7817 -15.621 -5.2990899
14.7817 -19.049999 -5.2990899
14.5489 -19.049999 5.36693
14.6684 -12.7 -2.9919901
14.7974 -15.621 -2.9212101
14.6684 -15.621 2.9919901
15.6765 -15.621 4.9284501
14.7974 -12.7 2.9212101
15.0112 -15.621 -5.2211699
15.0112 -19.049999 -5.2211699
14.7817 -19.049999 5.2990899
14.7974 -12.7 -2.9212101
14.9233 -15.621 -2.8448601
14.7974 -15.621 2.9212101
15.889 -15.621 4.8118501
14.9233 -12.7 2.8448601
14.9233 -12.7 -2.8448601
15.0456 -15.621 -2.7630999
14.9233 -15.621 2.8448601
16.096201 -15.621 4.68609
15.0456 -12.7 2.7630999
15.2372 -15.621 -5.1333098
15.2372 -19.049999 -5.1333098
15.0112 -19.049999 5.2211699
15.0456 -12.7 -2.7630999
15.1643 -15.621 -2.67608
15.0456 -15.621 2.7630999
16.2978 -15.621 4.5514102
15.1643 -12.7 2.67608
15.1643 -12.7 -2.67608
15.2791 -15.621 -2.5839601
15.1643 -15.621 2.67608
16.493299 -15.621 4.4080701
15.2791 -12.7 2.5839601
15.4591 -15.621 -5.0356698
15.4591 -19.049999 -5.0356698
15.2372 -19.049999 5.1333098
15.2791 -12.7 -2.5839601
15.3897 -15.621 -2.4869201
15.2791 -15.621 2.5839601
16.6824 -15.621 4.25633
15.3897 -12.7 2.4869201
15.3897 -12.7 -2.4869201
15.496 -15.621 -2.38516
15.3897 -15.621 2.4869201
16.864599 -15.621 4.0964999
15.496 -12.7 2.38516
15.6765 -15.621 -4.9284501
15.6765 -19.049999 -4.9284501
15.4591 -19.049999 5.0356698
15.496 -12.7 -2.38516
15.5978 -15.621 -2.2788501
15.496 -15.621 2.38516
17.0397 -15.621 3.9288599
15.5978 -12.7 2.2788501
15.5978 -12.7 -2.2788501
15.6948 -15.621 -2.1682
15.5978 -15.621 2.2788501
17.207399 -15.621 3.7537501
15.6948 -12.7 2.1682
15.889 -15.621 -4.8118501
15.889 -19.049999 -4.8118501
15.6765 -19.049999 4.9284501
15.7091 -19.049999 4.9105802
15.6948 -12.7 -2.1682
15.787 -15.621 -2.0534301
15.6948 -15.621 2.1682
17.367201 -15.621 3.57149
15.787 -12.7 2.0534301
15.787 -12.7 -2.0534301
15.874 -15.621 -1.9347399
15.787 -15.621 2.0534301
17.5189 -15.621 3.3824301
15.874 -12.7 1.9347399
15.874 -12.7 -1.9347399
15.9557 -15.621 -1.81238
15.874 -15.621 1.9347399
17.6623 -15.621 3.1869299
15.9557 -12.7 1.81238
16.096201 -15.621 -4.68609
16.096201 -19.049999 -4.68609
15.889 -19.049999 4.8118501
15.9557 -12.7 -1.81238
16.032101 -15.621 -1.68656
15.9557 -15.621 1.81238
17.797001 -15.621 2.9853699
16.032101 -12.7 1.68656
16.032101 -12.7 -1.68656
16.1029 -15.621 -1.55753
16.032101 -15.621 1.68656
17.922701 -15.621 2.77812
16.1029 -12.7 1.55753
16.2978 -15.621 -4.5514102
16.2978 -19.049999 -4.5514102
16.096201 -19.049999 4.68609
16.1029 -12.7 -1.55753
16.167999 -15.621 -1.42554
16.1029 -15.621 1.55753
18.039301 -15.621 2.5655899
16.167999 -12.7 1.42554
16.167999 -12.7 -1.42554
16.2272 -15.621 -1.29084
16.167999 -15.621 1.42554
18.146601 -15.621 2.34817
16.2272 -12.7 1.29084
16.2272 -12.7 -1.29084
16.2806 -15.621 -1.15368
16.2272 -15.621 1.29084
18.2442 -15.621 2.1262801
16.2806 -12.7 1.15368
16.2806 -12.7 -1.15368
16.3279 -15.621 -1.01432
16.2806 -15.621 1.15368
18.332001 -15.621 1.90035
16.3279 -12.7 1.01432
16.493299 -15.621 -4.4080701
16.493299 -19.049999 -4.4080701
16.2978 -19.049999 4.5514102
16.3279 -12.7 -1.01432
16.369101 -15.621 -0.87302798
16.3279 -15.621 1.01432
18.41 -15.621 1.6708
16.369101 -12.7 0.87302798
16.369101 -12.7 -0.87302798
16.403999 -15.621 -0.73007703
16.369101 -15.621 0.87302798
18.4778 -15.621 1.43806
16.403999 -12.7 0.73007703
16.403999 -12.7 -0.73007703
16.4328 -15.621 -0.58573598
16.403999 -15.621 0.73007703
18.5354 -15.621 1.20259
16.4328 -12.7 0.58573598
16.4328 -12.7 -0.58573598
16.455099 -15.621 -0.440281
16.4328 -15.621 0.58573598
18.582701 -15.621 0.96483302
16.455099 -12.7 0.440281
16.455099 -12.7 -0.440281
16.471201 -15.621 -0.29398701
16.455099 -15.621 0.440281
18.6196 -15.621 0.725236
16.471201 -12.7 0.29398701
16.471201 -12.7 -0.29398701
16.480801 -15.621 -0.14713299
16.471201 -15.621 0.29398701
18.646 -15.621 0.48425901
16.480801 -12.7 0.14713299
16.480801 -12.7 -0.14713299
16.483999 -15.621 0
16.480801 -15.621 0.14713299
18.6618 -15.621 0.24236
16.483999 -12.7 0
16.6824 -15.621 -4.25633
16.6824 -19.049999 -4.25633
16.493299 -19.049999 4.4080701
16.864599 -15.621 -4.0964999
16.864599 -19.049999 -4.0964999
16.6824 -19.049999 4.25633
17.0397 -15.621 -3.9288599
17.0397 -19.049999 -3.9288599
16.864599 -19.049999 4.0964999
17.207399 -15.621 -3.7537501
17.207399 -19.049999 -3.7537501
17.0397 -19.049999 3.9288599
17.367201 -15.621 -3.57149
17.367201 -19.049999 -3.57149
17.207399 -19.049999 3.7537501
17.5189 -15.621 -3.3824301
17.5189 -19.049999 -3.3824301
17.367201 -19.049999 3.57149
17.6623 -15.621 -3.1869299
17.6623 -19.049999 -3.1869299
17.5189 -19.049999 3.3824301
17.797001 -15.621 -2.9853699
17.797001 -19.049999 -2.9853699
17.6623 -19.049999 3.1869299
17.922701 -15.621 -2.77812
17.922701 -19.049999 -2.77812
17.797001 -19.049999 2.9853699
18.039301 -15.621 -2.5655899
18.039301 -19.049999 -2.5655899
17.922701 -19.049999 2.77812
18.146601 -15.621 -2.34817
18.146601 -19.049999 -2.34817
18.039301 -19.049999 2.5655899
18.2442 -15.621 -2.1262801
18.2442 -19.049999 -2.1262801
18.146601 -19.049999 2.34817
18.332001 -15.621 -1.90035
18.332001 -19.049999 -1.90035
18.2442 -19.049999 2.1262801
18.41 -15.621 -1.6708
18.41 -19.049999 -1.6708
18.332001 -19.049999 1.90035
18.4778 -15.621 -1.43806
18.4778 -19.049999 -1.43806
18.41 -19.049999 1.6708
18.5354 -15.621 -1.20259
18.5354 -19.049999 -1.20259
18.4778 -19.049999 1.43806
18.582701 -15.621 -0.96483302
18.582701 -19.049999 -0.96483302
18.5354 -19.049999 1.20259
18.6196 -15.621 -0.725236
18.6196 -19.049999 -0.725236
18.582701 -19.049999 0.96483302
18.646 -15.621 -0.48425901
18.646 -19.049999 -0.48425901
18.6196 -19.049999 0.725236
18.6618 -15.621 -0.24236
18.6618 -19.049999 -0.24236
18.646 -19.049999 0.48425901
18.667101 -15.621 0
18.667101 -19.049999 0
18.6618 -19.049999 0.24236
