# .PCD v0.7 - Point Cloud Data file format
VERSION 0.7
FIELDS x y z
SIZE 4 4 4
TYPE F F F
COUNT 1 1 1
WIDTH 432
HEIGHT 1
VIEWPOINT 0 0 0 1 0 0 0
POINTS 432
DATA ascii
-43.512798 -19.049999 -0.168833
-43.516499 -19.049999 0
-41.495899 -17.0397 0
-43.501801 -19.049999 -0.337345
-41.494099 -17.0397 -0.080696002
-43.512798 -19.049999 0.168833
-43.483398 -19.049999 -0.50521398
-41.488899 -17.0397 -0.161238
-43.501801 -19.049999 0.337345
-43.457699 -19.049999 -0.672122
-41.480099 -17.0397 -0.241473
-43.483398 -19.049999 0.50521398
-43.424702 -19.049999 -0.83775002
-41.4678 -17.0397 -0.32124901
-43.457699 -19.049999 0.672122
-43.384602 -19.049999 -1.00178
-41.452 -17.0397 -0.40041301
-43.424702 -19.049999 0.83775002
-43.337299 -19.049999 -1.16391
-41.432899 -17.0397 -0.47881499
-43.384602 -19.049999 1.00178
-43.2831 -19.049999 -1.32382
-41.410301 -17.0397 -0.556306
-43.337299 -19.049999 1.16391
-43.221901 -19.049999 -1.48121
-41.3843 -17.0397 -0.63273698
-43.2831 -19.049999 1.32382
-43.153801 -19.049999 -1.63578
-41.355099 -17.0397 -0.707964
-43.221901 -19.049999 1.48121
-43.079201 -19.049999 -1.78724
-41.322601 -17.0397 -0.78184402
-43.153801 -19.049999 1.63578
-42.997898 -19.049999 -1.9353
-41.2869 -17.0397 -0.85423499
-43.079201 -19.049999 1.78724
-42.910301 -19.049999 -2.07967
-41.248001 -17.0397 -0.92500001
-42.997898 -19.049999 1.9353
-42.816502 -19.049999 -2.2200799
-41.2062 -17.0397 -0.99400401
-42.910301 -19.049999 2.07967
-42.716599 -19.049999 -2.3562701
-41.161301 -17.0397 -1.06112
-42.816502 -19.049999 2.2200799
-42.610901 -19.049999 -2.4879701
-41.113602 -17.0397 -1.12621
-42.716599 -19.049999 2.3562701
-42.499599 -19.049999 -2.6149399
-41.063099 -17.0397 -1.18916
-42.610901 -19.049999 2.4879701
-42.382801 -19.049999 -2.7369201
-41.009899 -17.0397 -1.24984
-42.499599 -19.049999 2.6149399
-42.260799 -19.049999 -2.8536999
-40.953999 -17.0397 -1.3081501
-42.382801 -19.049999 2.7369201
-42.1339 -19.049999 -2.96505
-40.895699 -17.0397 -1.36396
-42.260799 -19.049999 2.8536999
-42.002201 -19.049999 -3.07075
-40.834999 -17.0397 -1.4171799
-42.1339 -19.049999 2.96505
-41.866001 -19.049999 -3.17061
-40.772099 -17.0397 -1.4677
-42.002201 -19.049999 3.07075
-41.725601 -19.049999 -3.26443
-40.707001 -17.0397 -1.51543
-41.866001 -19.049999 3.17061
-41.5812 -19.049999 -3.35203
-40.6399 -17.0397 -1.56027
-41.725601 -19.049999 3.26443
-41.433102 -19.049999 -3.43326
-40.5709 -17.0397 -1.60215
-41.5812 -19.049999 3.35203
-41.495899 -12.7 0
-41.494099 -17.0397 0.080696002
-41.494099 -12.7 0.080696002
-41.494099 -12.7 -0.080696002
-41.488899 -17.0397 0.161238
-41.488899 -12.7 0.161238
-41.488899 -12.7 -0.161238
-41.480099 -17.0397 0.241473
-41.480099 -12.7 0.241473
-41.480099 -12.7 -0.241473
-41.4678 -17.0397 0.32124901
-41.4678 -12.7 0.32124901
-41.4678 -12.7 -0.32124901
-41.452 -17.0397 0.40041301
-41.452 -12.7 0.40041301
-41.452 -12.7 -0.40041301
-41.432899 -17.0397 0.47881499
-41.432899 -12.7 0.47881499
-41.2817 -19.049999 -3.5079501
-40.500099 -17.0397 -1.64097
-41.433102 -19.049999 3.43326
-41.432899 -12.7 -0.47881499
-41.410301 -17.0397 0.556306
-41.410301 -12.7 0.556306
-41.410301 -12.7 -0.556306
-41.3843 -17.0397 0.63273698
-41.3843 -12.7 0.63273698
-41.3843 -12.7 -0.63273698
-41.355099 -17.0397 0.707964
-41.355099 -12.7 0.707964
-41.355099 -12.7 -0.707964
-41.322601 -17.0397 0.78184402
-41.322601 -12.7 0.78184402
-41.322601 -12.7 -0.78184402
-41.2869 -17.0397 0.85423499
-41.2869 -12.7 0.85423499
-41.2869 -12.7 -0.85423499
-41.248001 -17.0397 0.92500001
-41.248001 -12.7 0.92500001
-41.127102 -19.049999 -3.5759599
-40.4277 -17.0397 -1.67667
-41.2817 -19.049999 3.5079501
-41.248001 -12.7 -0.92500001
-41.2062 -17.0397 0.99400401
-41.2062 -12.7 0.99400401
-41.2062 -12.7 -0.99400401
-41.161301 -17.0397 1.06112
-41.161301 -12.7 1.06112
-41.161301 -12.7 -1.06112
-41.113602 -17.0397 1.12621
-41.113602 -12.7 1.12621
-40.9697 -19.049999 -3.6371701
-40.353901 -17.0397 -1.70918
-41.127102 -19.049999 3.5759599
-41.113602 -12.7 -1.12621
-41.063099 -17.0397 1.18916
-41.063099 -12.7 1.18916
-41.063099 -12.7 -1.18916
-41.009899 -17.0397 1.24984
-41.009899 -12.7 1.24984
-41.009899 -12.7 -1.24984
-40.953999 -17.0397 1.3081501
-40.953999 -12.7 1.3081501
-40.809799 -19.049999 -3.6914501
-40.278599 -17.0397 -1.73843
-40.9697 -19.049999 3.6371701
-40.953999 -12.7 -1.3081501
-40.895699 -17.0397 1.36396
-40.895699 -12.7 1.36396
-40.895699 -12.7 -1.36396
-40.834999 -17.0397 1.4171799
-40.834999 -12.7 1.4171799
-40.834999 -12.7 -1.4171799
-40.772099 -17.0397 1.4677
-40.772099 -12.7 1.4677
-40.647701 -19.049999 -3.7387099
-40.202202 -17.0397 -1.76438
-40.809799 -19.049999 3.6914501
-40.772099 -12.7 -1.4677
-40.707001 -17.0397 1.51543
-40.707001 -12.7 1.51543
-40.707001 -12.7 -1.51543
-40.6399 -17.0397 1.56027
-40.6399 -12.7 1.56027
-40.483601 -19.049999 -3.7788501
-40.124699 -17.0397 -1.78696
-40.647701 -19.049999 3.7387099
-40.6399 -12.7 -1.56027
-40.5709 -17.0397 1.60215
-40.5709 -12.7 1.60215
-40.5709 -12.7 -1.60215
-40.500099 -17.0397 1.64097
-40.500099 -12.7 1.64097
-40.500099 -12.7 -1.64097
-40.4277 -17.0397 1.67667
-40.4277 -12.7 1.67667
-40.318001 -19.049999 -3.81179
-40.046299 -17.0397 -1.80615
-40.483601 -19.049999 3.7788501
-40.4277 -12.7 -1.67667
-40.353901 -17.0397 1.70918
-40.353901 -12.7 1.70918
-40.353901 -12.7 -1.70918
-40.278599 -17.0397 1.73843
-40.278599 -12.7 1.73843
-40.1511 -19.049999 -3.8374801
-39.967098 -17.0397 -1.82189
-40.318001 -19.049999 3.81179
-40.278599 -12.7 -1.73843
-40.202202 -17.0397 1.76438
-40.202202 -12.7 1.76438
-40.202202 -12.7 -1.76438
-40.124699 -17.0397 1.78696
-40.124699 -12.7 1.78696
-39.9832 -19.049999 -3.85587
-39.887402 -17.0397 -1.83417
-40.1511 -19.049999 3.8374801
-40.124699 -12.7 -1.78696
-40.046299 -17.0397 1.80615
-40.046299 -12.7 1.80615
-40.046299 -12.7 -1.80615
-39.967098 -17.0397 1.82189
-39.967098 -12.7 1.82189
-39.814701 -19.049999 -3.86691
-39.807098 -17.0397 -1.84296
-39.9832 -19.049999 3.85587
-39.967098 -12.7 -1.82189
-39.887402 -17.0397 1.83417
-39.887402 -12.7 1.83417
-39.887402 -12.7 -1.83417
-39.807098 -17.0397 1.84296
-39.807098 -12.7 1.84296
-39.726601 -17.0397 -1.84824
-39.645901 -19.049999 -3.87059
-39.814701 -19.049999 3.86691
-39.807098 -12.7 -1.84296
-39.726601 -12.7 1.84824
-39.726601 -12.7 -1.84824
-39.726601 -17.0397 1.84824
-39.645901 -12.7 1.85
-39.645901 -17.0397 -1.85
-39.565201 -17.0397 -1.84824
-39.4771 -19.049999 -3.86691
-39.645901 -19.049999 3.87059
-39.645901 -12.7 -1.85
-39.645901 -17.0397 1.85
-39.565201 -12.7 1.84824
-39.565201 -12.7 -1.84824
-39.565201 -17.0397 1.84824
-39.4771 -19.049999 3.86691
-39.484699 -12.7 1.84296
-39.484699 -12.7 -1.84296
-39.484699 -17.0397 -1.84296
-39.308498 -19.049999 -3.85587
-39.4044 -17.0397 -1.83417
-39.484699 -17.0397 1.84296
-39.308498 -19.049999 3.85587
-39.4044 -12.7 1.83417
-39.4044 -12.7 -1.83417
-39.3246 -17.0397 -1.82189
-39.140701 -19.049999 -3.8374801
-39.4044 -17.0397 1.83417
-39.140701 -19.049999 3.8374801
-39.3246 -12.7 1.82189
-39.3246 -12.7 -1.82189
-39.245499 -17.0397 -1.80615
-38.973801 -19.049999 -3.81179
-39.3246 -17.0397 1.82189
-38.973801 -19.049999 3.81179
-39.245499 -12.7 1.80615
-39.245499 -12.7 -1.80615
-39.167099 -17.0397 -1.78696
-38.808102 -19.049999 -3.7788501
-39.245499 -17.0397 1.80615
-38.808102 -19.049999 3.7788501
-39.167099 -12.7 1.78696
-39.167099 -12.7 -1.78696
-39.0896 -17.0397 -1.76438
-38.6441 -19.049999 -3.7387099
-39.167099 -17.0397 1.78696
-38.6441 -19.049999 3.7387099
-39.0896 -12.7 1.76438
-39.0896 -12.7 -1.76438
-39.013199 -17.0397 -1.73843
-38.481998 -19.049999 -3.6914501
-39.0896 -17.0397 1.76438
-38.481998 -19.049999 3.6914501
-39.013199 -12.7 1.73843
-39.013199 -12.7 -1.73843
-38.937901 -17.0397 -1.70918
-38.322102 -19.049999 -3.6371701
-39.013199 -17.0397 1.73843
-38.322102 -19.049999 3.6371701
-38.937901 -12.7 1.70918
-38.937901 -12.7 -1.70918
-38.863998 -17.0397 -1.67667
-38.1647 -19.049999 -3.5759599
-38.937901 -17.0397 1.70918
-38.1647 -19.049999 3.5759599
-38.863998 -12.7 1.67667
-38.863998 -12.7 -1.67667
-38.791698 -17.0397 -1.64097
-38.010101 -19.049999 -3.5079501
-38.863998 -17.0397 1.67667
-38.010101 -19.049999 3.5079501
-38.791698 -12.7 1.64097
-38.791698 -12.7 -1.64097
-38.720901 -17.0397 -1.60215
-37.8587 -19.049999 -3.43326
-38.791698 -17.0397 1.64097
-37.8587 -19.049999 3.43326
-38.720901 -12.7 1.60215
-38.720901 -12.7 -1.60215
-38.651901 -17.0397 -1.56027
-37.710602 -19.049999 -3.35203
-38.720901 -17.0397 1.60215
-37.710602 -19.049999 3.35203
-38.651901 -12.7 1.56027
-38.651901 -12.7 -1.56027
-38.584801 -17.0397 -1.51543
-37.5662 -19.049999 -3.26443
-38.651901 -17.0397 1.56027
-37.5662 -19.049999 3.26443
-38.584801 -12.7 1.51543
-38.584801 -12.7 -1.51543
-38.519699 -17.0397 -1.4677
-37.4258 -19.049999 -3.17061
-38.584801 -17.0397 1.51543
-37.4258 -19.049999 3.17061
-38.519699 -12.7 1.4677
-38.519699 -12.7 -1.4677
-38.456699 -17.0397 -1.4171799
-37.2896 -19.049999 -3.07075
-38.519699 -17.0397 1.4677
-37.2896 -19.049999 3.07075
-38.456699 -12.7 1.4171799
-38.456699 -12.7 -1.4171799
-38.396 -17.0397 -1.36396
-37.157902 -19.049999 -2.96505
-38.456699 -17.0397 1.4171799
-37.157902 -19.049999 2.96505
-38.396 -12.7 1.36396
-38.396 -12.7 -1.36396
-38.3377 -17.0397 -1.3081501
-37.030998 -19.049999 -2.8536999
-38.396 -17.0397 1.36396
-37.030998 -19.049999 2.8536999
-38.3377 -12.7 1.3081501
-38.3377 -12.7 -1.3081501
-38.281898 -17.0397 -1.24984
-36.909 -19.049999 -2.7369201
-38.3377 -17.0397 1.3081501
-36.909 -19.049999 2.7369201
-38.281898 -12.7 1.24984
-38.281898 -12.7 -1.24984
-38.228699 -17.0397 -1.18916
-36.792198 -19.049999 -2.6149399
-38.281898 -17.0397 1.24984
-36.792198 -19.049999 2.6149399
-38.228699 -12.7 1.18916
-38.228699 -12.7 -1.18916
-38.1782 -17.0397 -1.12621
-36.680801 -19.049999 -2.4879701
-38.228699 -17.0397 1.18916
-36.680801 -19.049999 2.4879701
-38.1782 -12.7 1.12621
-38.1782 -12.7 -1.12621
-38.130501 -17.0397 -1.06112
-36.5751 -19.049999 -2.3562701
-38.1782 -17.0397 1.12621
-36.5751 -19.049999 2.3562701
-38.130501 -12.7 1.06112
-38.130501 -12.7 -1.06112
-38.085602 -17.0397 -0.99400401
-36.4753 -19.049999 -2.2200799
-38.130501 -17.0397 1.06112
-36.4753 -19.049999 2.2200799
-38.085602 -12.7 0.99400401
-38.085602 -12.7 -0.99400401
-38.043701 -17.0397 -0.92500001
-36.3815 -19.049999 -2.07967
-38.085602 -17.0397 0.99400401
-36.3815 -19.049999 2.07967
-38.043701 -12.7 0.92500001
-38.043701 -12.7 -0.92500001
-38.004902 -17.0397 -0.85423499
-36.2939 -19.049999 -1.9353
-38.043701 -17.0397 0.92500001
-36.2939 -19.049999 1.9353
-38.004902 -12.7 0.85423499
-38.004902 -12.7 -0.85423499
-37.9692 -17.0397 -0.78184402
-36.212601 -19.049999 -1.78724
-38.004902 -17.0397 0.85423499
-36.212601 -19.049999 1.78724
-37.9692 -12.7 0.78184402
-37.9692 -12.7 -0.78184402
-37.936699 -17.0397 -0.707964
-36.137901 -19.049999 -1.63578
-37.9692 -17.0397 0.78184402
-36.137901 -19.049999 1.63578
-37.936699 -12.7 0.707964
-37.936699 -12.7 -0.707964
-37.907501 -17.0397 -0.63273698
-36.069901 -19.049999 -1.48121
-37.936699 -17.0397 0.707964
-36.069901 -19.049999 1.48121
-37.907501 -12.7 0.63273698
-37.907501 -12.7 -0.63273698
-37.8815 -17.0397 -0.556306
-36.008701 -19.049999 -1.32382
-37.907501 -17.0397 0.63273698
-36.008701 -19.049999 1.32382
-37.8815 -12.7 0.556306
-37.8815 -12.7 -0.556306
-37.858898 -17.0397 -0.47881499
-35.954399 -19.049999 -1.16391
-37.8815 -17.0397 0.556306
-35.954399 -19.049999 1.16391
-37.858898 -12.7 0.47881499
-37.858898 -12.7 -0.47881499
-37.839699 -17.0397 -0.40041301
-35.9072 -19.049999 -1.00178
-37.858898 -17.0397 0.47881499
-35.9072 -19.049999 1.00178
-37.839699 -12.7 0.40041301
-37.839699 -12.7 -0.40041301
-37.824001 -17.0397 -0.32124901
-35.867001 -19.049999 -0.83775002
-37.839699 -17.0397 0.40041301
-35.867001 -19.049999 0.83775002
-37.824001 -12.7 0.32124901
-37.824001 -12.7 -0.32124901
-37.811699 -17.0397 -0.241473
-35.834099 -19.049999 -0.672122
-37.824001 -17.0397 0.32124901
-35.834099 -19.049999 0.672122
-37.811699 -12.7 0.241473
-37.811699 -12.7 -0.241473
-37.802898 -17.0397 -0.161238
-35.808399 -19.049999 -0.50521398
-37.811699 -17.0397 0.241473
-35.808399 -19.049999 0.50521398
-37.802898 -12.7 0.161238
-37.802898 -12.7 -0.161238
-37.797699 -17.0397 -0.080696002
-35.790001 -19.049999 -0.337345
-37.802898 -17.0397 0.161238
-35.790001 -19.049999 0.337345
-37.797699 -12.7 0.080696002
-37.797699 -12.7 -0.080696002
-37.795898 -17.0397 0
-35.778999 -19.049999 -0.168833
-37.797699 -17.0397 0.080696002
-35.778999 -19.049999 0.168833
-37.795898 -12.7 0
-35.775299 -19.049999 0
