# .PCD v0.7 - Point Cloud Data file format
VERSION 0.7
FIELDS x y z
SIZE 4 4 4
TYPE F F F
COUNT 1 1 1
WIDTH 578
HEIGHT 1
VIEWPOINT 0 0 0 1 0 0 0
POINTS 578
DATA ascii
-27.7491 -19.049999 0
-27.746401 -19.049999 -0.121208
-27.7491 -16.256001 0
-27.746401 -16.256001 0.121208
-26.5578 -16.256001 0
-27.738501 -19.049999 -0.242185
-27.746401 -19.049999 0.121208
-27.746401 -16.256001 -0.121208
-26.556299 -16.256001 -0.069246002
-27.738501 -16.256001 0.242185
-27.73 -19.049999 -0.32023099
-27.738501 -19.049999 0.242185
-27.738501 -16.256001 -0.242185
-26.5518 -16.256001 -0.13835999
-27.7253 -16.256001 0.362701
-27.7253 -19.049999 -0.362701
-27.7069 -19.049999 -0.48252699
-27.7253 -19.049999 0.362701
-27.7253 -16.256001 -0.362701
-26.544201 -16.256001 -0.20721
-27.7069 -16.256001 0.48252699
-27.683201 -19.049999 -0.60143399
-27.7069 -19.049999 0.48252699
-27.7069 -16.256001 -0.48252699
-26.533701 -16.256001 -0.275666
-27.683201 -16.256001 0.60143399
-27.6544 -19.049999 -0.71919602
-27.683201 -19.049999 0.60143399
-27.683201 -16.256001 -0.60143399
-26.520201 -16.256001 -0.34359801
-27.6544 -16.256001 0.71919602
-27.620501 -19.049999 -0.83558899
-27.6544 -19.049999 0.71919602
-27.6544 -16.256001 -0.71919602
-26.5037 -16.256001 -0.41087499
-27.620501 -16.256001 0.83558899
-27.581499 -19.049999 -0.95039201
-27.620501 -19.049999 0.83558899
-27.620501 -16.256001 -0.83558899
-26.484301 -16.256001 -0.47736999
-27.581499 -16.256001 0.95039201
-27.5376 -19.049999 -1.06339
-27.581499 -19.049999 0.95039201
-27.581499 -16.256001 -0.95039201
-26.462099 -16.256001 -0.54295701
-27.5376 -16.256001 1.06339
-27.488701 -19.049999 -1.17435
-27.5376 -19.049999 1.06339
-27.5376 -16.256001 -1.06339
-26.437 -16.256001 -0.60750997
-27.488701 -16.256001 1.17435
-27.435101 -19.049999 -1.28309
-27.488701 -19.049999 1.17435
-27.488701 -16.256001 -1.17435
-26.4091 -16.256001 -0.67090702
-27.435101 -16.256001 1.28309
-27.376801 -19.049999 -1.38938
-27.435101 -19.049999 1.28309
-27.435101 -16.256001 -1.28309
-26.3785 -16.256001 -0.73302603
-27.376801 -16.256001 1.38938
-27.3139 -19.049999 -1.49303
-27.376801 -19.049999 1.38938
-27.376801 -16.256001 -1.38938
-26.3451 -16.256001 -0.79374999
-27.3139 -16.256001 1.49303
-27.246599 -19.049999 -1.59383
-27.3139 -19.049999 1.49303
-27.3139 -16.256001 -1.49303
-26.3092 -16.256001 -0.85296297
-27.246599 -16.256001 1.59383
-27.1749 -19.049999 -1.6916
-27.246599 -19.049999 1.59383
-27.246599 -16.256001 -1.59383
-26.2707 -16.256001 -0.91055298
-27.1749 -16.256001 1.6916
-27.099001 -19.049999 -1.78615
-27.1749 -19.049999 1.6916
-27.1749 -16.256001 -1.6916
-26.229799 -16.256001 -0.96640903
-27.099001 -16.256001 1.78615
-27.018999 -19.049999 -1.8773
-27.099001 -19.049999 1.78615
-27.099001 -16.256001 -1.78615
-26.186399 -16.256001 -1.02043
-27.018999 -16.256001 1.8773
-26.9352 -19.049999 -1.96488
-27.018999 -19.049999 1.8773
-27.018999 -16.256001 -1.8773
-26.1408 -16.256001 -1.0725
-26.9352 -16.256001 1.96488
-26.847601 -19.049999 -2.0487199
-26.9352 -19.049999 1.96488
-26.9352 -16.256001 -1.96488
-26.092899 -16.256001 -1.12253
-26.847601 -16.256001 2.0487199
-26.7565 -19.049999 -2.12865
-26.847601 -19.049999 2.0487199
-26.847601 -16.256001 -2.0487199
-26.042801 -16.256001 -1.1704299
-26.7565 -16.256001 2.12865
-26.6619 -19.049999 -2.20454
-26.7565 -19.049999 2.12865
-26.7565 -16.256001 -2.12865
-25.990801 -16.256001 -1.2161
-26.6619 -16.256001 2.20454
-26.564199 -19.049999 -2.2762301
-26.6619 -19.049999 2.20454
-26.6619 -16.256001 -2.20454
-25.936701 -16.256001 -1.25945
-26.564199 -16.256001 2.2762301
-26.4634 -19.049999 -2.34358
-26.564199 -19.049999 2.2762301
-26.564199 -16.256001 -2.2762301
-25.880899 -16.256001 -1.3004
-26.4634 -16.256001 2.34358
-26.5578 -12.7 0
-26.556299 -16.256001 0.069246002
-26.556299 -12.7 0.069246002
-26.556299 -12.7 -0.069246002
-26.5518 -16.256001 0.13835999
-26.5518 -12.7 0.13835999
-26.5518 -12.7 -0.13835999
-26.544201 -16.256001 0.20721
-26.544201 -12.7 0.20721
-26.544201 -12.7 -0.20721
-26.533701 -16.256001 0.275666
-26.533701 -12.7 0.275666
-26.533701 -12.7 -0.275666
-26.520201 -16.256001 0.34359801
-26.520201 -12.7 0.34359801
-26.520201 -12.7 -0.34359801
-26.5037 -16.256001 0.41087499
-26.5037 -12.7 0.41087499
-26.5037 -12.7 -0.41087499
-26.484301 -16.256001 0.47736999
-26.484301 -12.7 0.47736999
-26.484301 -12.7 -0.47736999
-26.462099 -16.256001 0.54295701
-26.462099 -12.7 0.54295701
-26.359699 -19.049999 -2.4064801
-26.4634 -19.049999 2.34358
-26.4634 -16.256001 -2.34358
-25.823299 -16.256001 -1.3388799
-26.359699 -16.256001 2.4064801
-26.462099 -12.7 -0.54295701
-26.437 -16.256001 0.60750997
-26.437 -12.7 0.60750997
-26.437 -12.7 -0.60750997
-26.417601 -12.7 -0.65156001
-26.4091 -16.256001 0.67090702
-26.4091 -12.7 0.67090702
-26.4091 -12.7 -0.67090702
-26.3785 -16.256001 0.73302603
-26.3785 -12.7 0.73302603
-26.3785 -12.7 -0.73302603
-26.3451 -16.256001 0.79374999
-26.3451 -12.7 0.79374999
-26.253401 -19.049999 -2.4647901
-26.359699 -19.049999 2.4064801
-26.359699 -16.256001 -2.4064801
-25.764099 -16.256001 -1.37482
-26.253401 -16.256001 2.4647901
-26.3451 -12.7 -0.79374999
-26.3092 -16.256001 0.85296297
-26.3092 -12.7 0.85296297
-26.3092 -12.7 -0.85296297
-26.2707 -16.256001 0.91055298
-26.2707 -12.7 0.91055298
-26.2707 -12.7 -0.91055298
-26.229799 -16.256001 0.96640903
-26.229799 -12.7 0.96640903
-26.144699 -19.049999 -2.51841
-26.253401 -19.049999 2.4647901
-26.253401 -16.256001 -2.4647901
-25.7034 -16.256001 -1.40813
-26.144699 -16.256001 2.51841
-26.229799 -12.7 -0.96640903
-26.186399 -16.256001 1.02043
-26.186399 -12.7 1.02043
-26.186399 -12.7 -1.02043
-26.1408 -16.256001 1.0725
-26.1408 -12.7 1.0725
-26.033701 -19.049999 -2.56724
-26.144699 -19.049999 2.51841
-26.144699 -16.256001 -2.51841
-25.641199 -16.256001 -1.43876
-26.033701 -16.256001 2.56724
-26.1408 -12.7 -1.0725
-26.092899 -16.256001 1.12253
-26.092899 -12.7 1.12253
-26.092899 -12.7 -1.12253
-26.042801 -16.256001 1.1704299
-26.042801 -12.7 1.1704299
-26.042801 -12.7 -1.1704299
-25.990801 -16.256001 1.2161
-25.990801 -12.7 1.2161
-25.9207 -19.049999 -2.6111801
-26.033701 -19.049999 2.56724
-26.033701 -16.256001 -2.56724
-25.577801 -16.256001 -1.46666
-25.9207 -16.256001 2.6111801
-25.990801 -12.7 -1.2161
-25.936701 -16.256001 1.25945
-25.936701 -12.7 1.25945
-25.936701 -12.7 -1.25945
-25.880899 -16.256001 1.3004
-25.880899 -12.7 1.3004
-25.805901 -19.049999 -2.6501501
-25.9207 -19.049999 2.6111801
-25.9207 -16.256001 -2.6111801
-25.5133 -16.256001 -1.49176
-25.805901 -16.256001 2.6501501
-25.880899 -12.7 -1.3004
-25.823299 -16.256001 1.3388799
-25.823299 -12.7 1.3388799
-25.823299 -12.7 -1.3388799
-25.764099 -16.256001 1.37482
-25.764099 -12.7 1.37482
-25.689501 -19.049999 -2.6840799
-25.805901 -19.049999 2.6501501
-25.805901 -16.256001 -2.6501501
-25.447701 -16.256001 -1.51403
-25.689501 -16.256001 2.6840799
-25.764099 -12.7 -1.37482
-25.7034 -16.256001 1.40813
-25.7034 -12.7 1.40813
-25.7034 -12.7 -1.40813
-25.641199 -16.256001 1.43876
-25.641199 -12.7 1.43876
-25.5718 -19.049999 -2.7128899
-25.689501 -19.049999 2.6840799
-25.689501 -16.256001 -2.6840799
-25.381201 -16.256001 -1.53341
-25.5718 -16.256001 2.7128899
-25.641199 -12.7 -1.43876
-25.577801 -16.256001 1.46666
-25.577801 -12.7 1.46666
-25.577801 -12.7 -1.46666
-25.5133 -16.256001 1.49176
-25.5133 -12.7 1.49176
-25.4529 -19.049999 -2.7365401
-25.5718 -19.049999 2.7128899
-25.5718 -16.256001 -2.7128899
-25.3139 -16.256001 -1.54987
-25.4529 -16.256001 2.7365401
-25.5133 -12.7 -1.49176
-25.447701 -16.256001 1.51403
-25.447701 -12.7 1.51403
-25.333 -19.049999 -2.7549901
-25.4529 -19.049999 2.7365401
-25.4529 -16.256001 -2.7365401
-25.246 -16.256001 -1.56338
-25.447701 -12.7 -1.51403
-25.381201 -16.256001 1.53341
-25.381201 -12.7 1.53341
-25.381201 -12.7 -1.53341
-25.3139 -16.256001 1.54987
-25.3139 -12.7 1.54987
-25.2125 -19.049999 -2.7681899
-25.333 -19.049999 2.7549901
-25.333 -16.256001 -2.7549901
-25.1775 -16.256001 -1.57392
-25.333 -16.256001 2.7549901
-25.3139 -12.7 -1.54987
-25.246 -16.256001 1.56338
-25.246 -12.7 1.56338
-25.246 -12.7 -1.56338
-25.1775 -16.256001 1.57392
-25.1775 -12.7 1.57392
-25.2125 -16.256001 -2.7681899
-25.091499 -19.049999 -2.7761199
-25.2125 -19.049999 2.7681899
-25.1087 -16.256001 -1.58146
-25.2125 -16.256001 2.7681899
-25.1775 -12.7 -1.57392
-25.1087 -12.7 1.58146
-25.1087 -12.7 -1.58146
-25.1087 -16.256001 1.58146
-25.0396 -12.7 1.58599
-25.091499 -16.256001 -2.7761199
-24.970301 -19.049999 -2.77876
-25.091499 -19.049999 2.7761199
-25.0396 -16.256001 -1.58599
-25.091499 -16.256001 2.7761199
-25.0396 -12.7 -1.58599
-25.0396 -16.256001 1.58599
-24.970301 -12.7 1.5875
-24.970301 -16.256001 -2.77876
-24.8491 -19.049999 -2.7761199
-24.970301 -19.049999 2.77876
-24.970301 -16.256001 -1.5875
-24.970301 -12.7 -1.5875
-24.970301 -16.256001 2.77876
-24.970301 -16.256001 1.5875
-24.9011 -12.7 1.58599
-24.9011 -12.7 -1.58599
-24.9011 -16.256001 -1.58599
-24.9011 -16.256001 1.58599
-24.8491 -16.256001 2.7761199
-24.832001 -12.7 1.58146
-24.8491 -16.256001 -2.7761199
-24.7281 -16.256001 -2.7681899
-24.7281 -19.049999 -2.7681899
-24.8491 -19.049999 2.7761199
-24.832001 -16.256001 -1.58146
-24.832001 -12.7 -1.58146
-24.832001 -16.256001 1.58146
-24.7281 -16.256001 2.7681899
-24.7631 -12.7 1.57392
-24.7631 -12.7 -1.57392
-24.7631 -16.256001 -1.57392
-24.6947 -16.256001 -1.56338
-24.7631 -16.256001 1.57392
-24.607599 -16.256001 2.7549901
-24.6947 -12.7 1.56338
-24.607599 -16.256001 -2.7549901
-24.607599 -19.049999 -2.7549901
-24.7281 -19.049999 2.7681899
-24.6947 -12.7 -1.56338
-24.626699 -16.256001 -1.54987
-24.6947 -16.256001 1.56338
-24.487801 -16.256001 2.7365401
-24.626699 -12.7 1.54987
-24.626699 -12.7 -1.54987
-24.559401 -16.256001 -1.53341
-24.626699 -16.256001 1.54987
-24.3689 -16.256001 2.7128899
-24.559401 -12.7 1.53341
-24.487801 -16.256001 -2.7365401
-24.487801 -19.049999 -2.7365401
-24.607599 -19.049999 2.7549901
-24.559401 -12.7 -1.53341
-24.493 -16.256001 -1.51403
-24.559401 -16.256001 1.53341
-24.251101 -16.256001 2.6840799
-24.493 -12.7 1.51403
-24.493 -12.7 -1.51403
-24.427401 -16.256001 -1.49176
-24.493 -16.256001 1.51403
-24.134701 -16.256001 2.6501501
-24.427401 -12.7 1.49176
-24.3689 -16.256001 -2.7128899
-24.3689 -19.049999 -2.7128899
-24.487801 -19.049999 2.7365401
-24.427401 -12.7 -1.49176
-24.362801 -16.256001 -1.46666
-24.427401 -16.256001 1.49176
-24.019899 -16.256001 2.6111801
-24.362801 -12.7 1.46666
-24.251101 -16.256001 -2.6840799
-24.251101 -19.049999 -2.6840799
-24.3689 -19.049999 2.7128899
-24.362801 -12.7 -1.46666
-24.2994 -16.256001 -1.43876
-24.362801 -16.256001 1.46666
-23.9069 -16.256001 2.56724
-24.2994 -12.7 1.43876
-24.2994 -12.7 -1.43876
-24.237301 -16.256001 -1.40813
-24.2994 -16.256001 1.43876
-23.796 -16.256001 2.51841
-24.237301 -12.7 1.40813
-24.134701 -16.256001 -2.6501501
-24.134701 -19.049999 -2.6501501
-24.251101 -19.049999 2.6840799
-24.237301 -12.7 -1.40813
-24.1766 -16.256001 -1.37482
-24.237301 -16.256001 1.40813
-23.687201 -16.256001 2.4647901
-24.1766 -12.7 1.37482
-24.1766 -12.7 -1.37482
-24.117399 -16.256001 -1.3388799
-24.1766 -16.256001 1.37482
-23.5809 -16.256001 2.4064801
-24.117399 -12.7 1.3388799
-24.019899 -16.256001 -2.6111801
-24.019899 -19.049999 -2.6111801
-24.134701 -19.049999 2.6501501
-24.117399 -12.7 -1.3388799
-24.059799 -16.256001 -1.3004
-24.117399 -16.256001 1.3388799
-23.477301 -16.256001 2.34358
-24.059799 -12.7 1.3004
-24.059799 -12.7 -1.3004
-24.003901 -16.256001 -1.25945
-24.059799 -16.256001 1.3004
-23.376499 -16.256001 2.2762301
-24.003901 -12.7 1.25945
-23.9069 -16.256001 -2.56724
-23.9069 -19.049999 -2.56724
-24.019899 -19.049999 2.6111801
-24.003901 -12.7 -1.25945
-23.9499 -16.256001 -1.2161
-24.003901 -16.256001 1.25945
-23.2787 -16.256001 2.20454
-23.9499 -12.7 1.2161
-23.9499 -12.7 -1.2161
-23.8978 -16.256001 -1.1704299
-23.9499 -16.256001 1.2161
-23.1842 -16.256001 2.12865
-23.8978 -12.7 1.1704299
-23.796 -16.256001 -2.51841
-23.796 -19.049999 -2.51841
-23.9069 -19.049999 2.56724
-23.8978 -12.7 -1.1704299
-23.847799 -16.256001 -1.12253
-23.8978 -16.256001 1.1704299
-23.093 -16.256001 2.0487199
-23.847799 -12.7 1.12253
-23.847799 -12.7 -1.12253
-23.7999 -16.256001 -1.0725
-23.847799 -16.256001 1.12253
-23.0054 -16.256001 1.96488
-23.7999 -12.7 1.0725
-23.7999 -12.7 -1.0725
-23.7542 -16.256001 -1.02043
-23.7999 -16.256001 1.0725
-22.9216 -16.256001 1.8773
-23.7542 -12.7 1.02043
-23.687201 -16.256001 -2.4647901
-23.687201 -19.049999 -2.4647901
-23.796 -19.049999 2.51841
-23.7542 -12.7 -1.02043
-23.710899 -16.256001 -0.96640903
-23.7542 -16.256001 1.02043
-22.8417 -16.256001 1.78615
-23.710899 -12.7 0.96640903
-23.710899 -12.7 -0.96640903
-23.669901 -16.256001 -0.91055298
-23.710899 -16.256001 0.96640903
-22.7658 -16.256001 1.6916
-23.669901 -12.7 0.91055298
-23.5809 -16.256001 -2.4064801
-23.5809 -19.049999 -2.4064801
-23.687201 -19.049999 2.4647901
-23.669901 -12.7 -0.91055298
-23.631399 -16.256001 -0.85296297
-23.669901 -16.256001 0.91055298
-22.694099 -16.256001 1.59383
-23.631399 -12.7 0.85296297
-23.631399 -12.7 -0.85296297
-23.595501 -16.256001 -0.79374999
-23.631399 -16.256001 0.85296297
-22.626699 -16.256001 1.49303
-23.595501 -12.7 0.79374999
-23.595501 -12.7 -0.79374999
-23.562201 -16.256001 -0.73302603
-23.595501 -16.256001 0.79374999
-22.563801 -16.256001 1.38938
-23.562201 -12.7 0.73302603
-23.477301 -16.256001 -2.34358
-23.477301 -19.049999 -2.34358
-23.5809 -19.049999 2.4064801
-23.562201 -12.7 -0.73302603
-23.531601 -16.256001 -0.67090702
-23.562201 -16.256001 0.73302603
-22.505501 -16.256001 1.28309
-23.531601 -12.7 0.67090702
-23.531601 -12.7 -0.67090702
-23.5037 -16.256001 -0.60750997
-23.531601 -16.256001 0.67090702
-22.4519 -16.256001 1.17435
-23.5037 -12.7 0.60750997
-23.5037 -12.7 -0.60750997
-23.4786 -16.256001 -0.54295701
-23.5037 -16.256001 0.60750997
-22.403099 -16.256001 1.06339
-23.4786 -12.7 0.54295701
-23.4786 -12.7 -0.54295701
-23.456301 -16.256001 -0.47736999
-23.4786 -16.256001 0.54295701
-22.3591 -16.256001 0.95039201
-23.456301 -12.7 0.47736999
-23.376499 -16.256001 -2.2762301
-23.376499 -19.049999 -2.2762301
-23.477301 -19.049999 2.34358
-23.456301 -12.7 -0.47736999
-23.436899 -16.256001 -0.41087499
-23.456301 -16.256001 0.47736999
-22.3202 -16.256001 0.83558899
-23.436899 -12.7 0.41087499
-23.436899 -12.7 -0.41087499
-23.4205 -16.256001 -0.34359801
-23.436899 -16.256001 0.41087499
-22.2862 -16.256001 0.71919602
-23.4205 -12.7 0.34359801
-23.4205 -12.7 -0.34359801
-23.4069 -16.256001 -0.275666
-23.4205 -16.256001 0.34359801
-22.257401 -16.256001 0.60143399
-23.4069 -12.7 0.275666
-23.4069 -12.7 -0.275666
-23.3964 -16.256001 -0.20721
-23.4069 -16.256001 0.275666
-22.233801 -16.256001 0.48252699
-23.3964 -12.7 0.20721
-23.3964 -12.7 -0.20721
-23.388901 -16.256001 -0.13835999
-23.3964 -16.256001 0.20721
-22.2153 -16.256001 0.362701
-23.388901 -12.7 0.13835999
-23.388901 -12.7 -0.13835999
-23.3843 -16.256001 -0.069246002
-23.388901 -16.256001 0.13835999
-22.202101 -16.256001 0.242185
-23.3843 -12.7 0.069246002
-23.3843 -12.7 -0.069246002
-23.382799 -16.256001 0
-23.3843 -16.256001 0.069246002
-22.194201 -16.256001 0.121208
-23.382799 -12.7 0
-23.2787 -16.256001 -2.20454
-23.2787 -19.049999 -2.20454
-23.376499 -19.049999 2.2762301
-23.1842 -16.256001 -2.12865
-23.1842 -19.049999 -2.12865
-23.2787 -19.049999 2.20454
-23.093 -16.256001 -2.0487199
-23.093 -19.049999 -2.0487199
-23.1842 -19.049999 2.12865
-23.0054 -16.256001 -1.96488
-23.0054 -19.049999 -1.96488
-23.093 -19.049999 2.0487199
-22.9216 -16.256001 -1.8773
-22.9216 -19.049999 -1.8773
-23.0054 -19.049999 1.96488
-22.8417 -16.256001 -1.78615
-22.8417 -19.049999 -1.78615
-22.9216 -19.049999 1.8773
-22.7658 -16.256001 -1.6916
-22.7658 -19.049999 -1.6916
-22.8417 -19.049999 1.78615
-22.694099 -16.256001 -1.59383
-22.694099 -19.049999 -1.59383
-22.7658 -19.049999 1.6916
-22.626699 -16.256001 -1.49303
-22.626699 -19.049999 -1.49303
-22.694099 -19.049999 1.59383
-22.563801 -16.256001 -1.38938
-22.563801 -19.049999 -1.38938
-22.626699 -19.049999 1.49303
-22.505501 -16.256001 -1.28309
-22.505501 -19.049999 -1.28309
-22.563801 -19.049999 1.38938
-22.4519 -16.256001 -1.17435
-22.4519 -19.049999 -1.17435
-22.505501 -19.049999 1.28309
-22.403099 -16.256001 -1.06339
-22.403099 -19.049999 -1.06339
-22.4519 -19.049999 1.17435
-22.3591 -16.256001 -0.95039201
-22.3591 -19.049999 -0.95039201
-22.403099 -19.049999 1.06339
-22.3202 -16.256001 -0.83558899
-22.3202 -19.049999 -0.83558899
-22.3591 -19.049999 0.95039201
-22.2862 -16.256001 -0.71919602
-22.2862 -19.049999 -0.71919602
-22.3202 -19.049999 0.83558899
-22.257401 -16.256001 -0.60143399
-22.257401 -19.049999 -0.60143399
-22.2862 -19.049999 0.71919602
-22.233801 -16.256001 -0.48252699
-22.233801 -19.049999 -0.48252699
-22.257401 -19.049999 0.60143399
-22.2153 -16.256001 -0.362701
-22.2153 -19.049999 -0.362701
-22.233801 -19.049999 0.48252699
-22.202101 -16.256001 -0.242185
-22.202101 -19.049999 -0.242185
-22.2153 -19.049999 0.362701
-22.194201 -16.256001 -0.121208
-22.194201 -19.049999 -0.121208
-22.202101 -19.049999 0.242185
-22.191601 -16.256001 0
-22.191601 -19.049999 0
-22.194201 -19.049999 0.121208
