# .PCD v0.7 - Point Cloud Data file format
VERSION 0.7
FIELDS x y z
SIZE 4 4 4
TYPE F F F
COUNT 1 1 1
WIDTH 728
HEIGHT 1
VIEWPOINT 0 0 0 1 0 0 0
POINTS 728
DATA ascii
-10.9422 -7.3284602 23.412901
-10.8799 -7.0500002 23.695999
-10.6588 -7.0500002 23.73
-10.4439 -7.0500002 23.792601
-10.2391 -7.0500002 23.8827
-10.0479 -7.0500002 23.9988
-9.8733597 -7.0500002 24.138901
-9.7186403 -7.0500002 24.300501
-9.5863304 -7.0500002 24.4809
-9.4787102 -7.0500002 24.677099
-9.3976202 -7.0500002 24.885599
-9.34443 -7.0500002 25.103001
-9.3200703 -7.0500002 25.325399
-9.3249598 -7.0500002 25.549101
-9.3589897 -7.0500002 25.770201
-9.4216003 -7.0500002 25.985001
-9.5117197 -7.0500002 26.1898
-9.6277905 -7.0500002 26.3811
-9.7678404 -7.0500002 26.555599
-9.9294701 -7.0500002 26.7104
-10.1099 -7.0500002 26.842699
-10.3061 -7.0500002 26.9503
-10.5146 -7.0500002 27.031401
-10.732 -7.0500002 27.0846
-11.1781 -7.0500002 27.104
-11.3992 -7.0500002 27.07
-11.614 -7.0500002 27.007401
-11.8188 -7.0500002 26.917299
-12.0101 -7.0500002 26.801201
-12.1846 -7.0500002 26.6611
-12.3393 -7.0500002 26.4995
-12.4716 -7.0500002 26.319099
-12.5793 -7.0500002 26.1229
-12.6604 -7.0500002 25.9144
-12.7135 -7.0500002 25.697001
-12.7379 -7.0500002 25.4746
-12.733 -7.0500002 25.2509
-12.699 -7.0500002 25.0298
-12.6364 -7.0500002 24.815001
-12.5463 -7.0500002 24.610201
-12.4302 -7.0500002 24.4189
-12.2901 -7.0500002 24.2444
-12.1285 -7.0500002 24.089701
-11.9481 -7.0500002 23.9573
-11.7519 -7.0500002 23.849701
-11.5434 -7.0500002 23.7686
-11.326 -7.0500002 23.715401
-11.1036 -7.0500002 23.691099
-11.1036 -7.0500002 27.1089
-11.029 -7.0500002 27.1105
-10.9544 -7.0500002 27.1089
-11.326 -7.0500002 27.0846
-11.2523 -7.0500002 27.0959
-11.5434 -7.0500002 27.031401
-11.4717 -7.0500002 27.052299
-11.7519 -7.0500002 26.9503
-11.6836 -7.0500002 26.980301
-11.9481 -7.0500002 26.842699
-11.8843 -7.0500002 26.881399
-12.1285 -7.0500002 26.7104
-12.0703 -7.0500002 26.757099
-12.2901 -7.0500002 26.555599
-12.2385 -7.0500002 26.609501
-12.4302 -7.0500002 26.3811
-12.386 -7.0500002 26.441299
-12.5463 -7.0500002 26.1898
-12.5104 -7.0500002 26.255301
-12.6364 -7.0500002 25.985001
-12.6093 -7.0500002 26.0546
-12.699 -7.0500002 25.770201
-12.6812 -7.0500002 25.842699
-12.733 -7.0500002 25.549101
-12.7249 -7.0500002 25.623301
-12.7379 -7.0500002 25.325399
-12.7395 -7.0500002 25.4
-12.7135 -7.0500002 25.103001
-12.7249 -7.0500002 25.176701
-12.6604 -7.0500002 24.885599
-12.6812 -7.0500002 24.9573
-12.5793 -7.0500002 24.677099
-12.6093 -7.0500002 24.745399
-12.4716 -7.0500002 24.4809
-12.5104 -7.0500002 24.544701
-12.3393 -7.0500002 24.300501
-12.386 -7.0500002 24.3587
-12.1846 -7.0500002 24.138901
-12.2385 -7.0500002 24.1905
-12.0101 -7.0500002 23.9988
-12.0703 -7.0500002 24.0429
-11.8188 -7.0500002 23.8827
-11.8843 -7.0500002 23.9186
-11.614 -7.0500002 23.792601
-11.6836 -7.0500002 23.8197
-11.3992 -7.0500002 23.73
-11.4717 -7.0500002 23.7477
-11.1781 -7.0500002 23.695999
-11.2523 -7.0500002 23.7041
-10.9544 -7.0500002 23.691099
-11.029 -7.0500002 23.689501
-10.732 -7.0500002 23.715401
-10.8057 -7.0500002 23.7041
-10.5146 -7.0500002 23.7686
-10.5863 -7.0500002 23.7477
-10.3061 -7.0500002 23.849701
-10.3744 -7.0500002 23.8197
-10.1099 -7.0500002 23.9573
-10.1737 -7.0500002 23.9186
-9.9294701 -7.0500002 24.089701
-9.9876804 -7.0500002 24.0429
-9.7678404 -7.0500002 24.2444
-9.8194504 -7.0500002 24.1905
-9.6277905 -7.0500002 24.4189
-9.6719198 -7.0500002 24.3587
-9.5117197 -7.0500002 24.610201
-9.5476198 -7.0500002 24.544701
-9.4216003 -7.0500002 24.815001
-9.4486504 -7.0500002 24.745399
-9.3589897 -7.0500002 25.0298
-9.37673 -7.0500002 24.9573
-9.3249598 -7.0500002 25.2509
-9.3330803 -7.0500002 25.176701
-9.3200703 -7.0500002 25.4746
-9.31845 -7.0500002 25.4
-9.34443 -7.0500002 25.697001
-9.3330803 -7.0500002 25.623301
-9.3976202 -7.0500002 25.9144
-9.37673 -7.0500002 25.842699
-9.4787102 -7.0500002 26.1229
-9.4486504 -7.0500002 26.0546
-9.5863304 -7.0500002 26.319099
-9.5476198 -7.0500002 26.255301
-9.7186403 -7.0500002 26.4995
-9.6719198 -7.0500002 26.441299
-9.8733597 -7.0500002 26.6611
-9.8194504 -7.0500002 26.609501
-10.0479 -7.0500002 26.801201
-9.9876804 -7.0500002 26.757099
-10.2391 -7.0500002 26.917299
-10.1737 -7.0500002 26.881399
-10.4439 -7.0500002 27.007401
-10.3744 -7.0500002 26.980301
-10.6588 -7.0500002 27.07
-11.029 -7.0500002 25.4
-10.5863 -7.0500002 27.052299
-10.8799 -7.0500002 27.104
-10.8057 -7.0500002 27.0959
-10.9422 -19.049999 23.412901
-10.8556 -7.3284602 23.4186
-10.8556 -19.049999 23.4186
-10.7694 -7.3284602 23.427999
-10.7694 -19.049999 23.427999
-10.6836 -7.3284602 23.4412
-10.6836 -19.049999 23.4412
-10.5985 -7.3284602 23.458099
-10.5985 -19.049999 23.458099
-10.5142 -7.3284602 23.4788
-10.5142 -19.049999 23.4788
-10.4309 -7.3284602 23.503099
-10.4309 -19.049999 23.503099
-10.3487 -7.3284602 23.531
-10.3487 -19.049999 23.531
-10.2678 -7.3284602 23.562401
-10.2678 -19.049999 23.562401
-10.1884 -7.3284602 23.597401
-10.1884 -19.049999 23.597401
-10.1106 -7.3284602 23.6357
-10.1106 -19.049999 23.6357
-10.0345 -7.3284602 23.6775
-10.0345 -19.049999 23.6775
-9.9603004 -7.3284602 23.7225
-9.9603004 -19.049999 23.7225
-9.8881397 -7.3284602 23.7707
-9.8881397 -19.049999 23.7707
-9.8181601 -7.3284602 23.822001
-9.8181601 -19.049999 23.822001
-9.7504797 -7.3284602 23.876301
-9.7504797 -19.049999 23.876301
-9.6852398 -7.3284602 23.933599
-9.6852398 -19.049999 23.933599
-9.62255 -7.3284602 23.993601
-9.62255 -19.049999 23.993601
-9.5625401 -7.3284602 24.056299
-9.5625401 -19.049999 24.056299
-9.5053196 -7.3284602 24.1215
-9.5053196 -19.049999 24.1215
-9.4510098 -7.3284602 24.189199
-9.4510098 -19.049999 24.189199
-9.3996897 -7.3284602 24.259199
-9.3996897 -19.049999 24.259199
-9.3514795 -7.3284602 24.331301
-9.3514795 -19.049999 24.331301
-9.3064604 -7.3284602 24.4055
-9.3064604 -19.049999 24.4055
-9.26472 -7.3284602 24.4816
-9.26472 -19.049999 24.4816
-9.2263403 -7.3284602 24.559401
-9.2263403 -19.049999 24.559401
-9.19139 -7.3284602 24.6388
-9.19139 -19.049999 24.6388
-9.1599398 -7.3284602 24.7197
-9.1599398 -19.049999 24.7197
-9.13204 -7.3284602 24.801901
-9.13204 -19.049999 24.801901
-9.1077604 -7.3284602 24.885201
-9.1077604 -19.049999 24.885201
-9.0871296 -7.3284602 24.9695
-9.0871296 -19.049999 24.9695
-9.0702 -7.3284602 25.0546
-9.0702 -19.049999 25.0546
-9.0570002 -7.3284602 25.1404
-9.0570002 -19.049999 25.1404
-9.0475502 -7.3284602 25.226601
-9.0475502 -19.049999 25.226601
-9.0418797 -7.3284602 25.3132
-9.0418797 -19.049999 25.3132
-9.0399904 -7.3284602 25.4
-9.0399904 -19.049999 25.4
-9.0418797 -7.3284602 25.486799
-9.0418797 -19.049999 25.486799
-9.0475502 -7.3284602 25.5734
-9.0475502 -19.049999 25.5734
-9.0570002 -7.3284602 25.659599
-9.0570002 -19.049999 25.659599
-9.0702 -7.3284602 25.745399
-9.0702 -19.049999 25.745399
-9.0871296 -7.3284602 25.8305
-9.0871296 -19.049999 25.8305
-9.1077604 -7.3284602 25.914801
-9.1077604 -19.049999 25.914801
-9.13204 -7.3284602 25.9981
-9.13204 -19.049999 25.9981
-9.1599398 -7.3284602 26.080299
-9.1599398 -19.049999 26.080299
-9.19139 -7.3284602 26.1612
-9.19139 -19.049999 26.1612
-9.2263403 -7.3284602 26.240601
-9.2263403 -19.049999 26.240601
-9.26472 -7.3284602 26.318399
-9.26472 -19.049999 26.318399
-9.3064604 -7.3284602 26.394501
-9.3064604 -19.049999 26.394501
-9.3514795 -7.3284602 26.4687
-9.3514795 -19.049999 26.4687
-9.3996897 -7.3284602 26.5408
-9.3996897 -19.049999 26.5408
-9.4510098 -7.3284602 26.6108
-9.4510098 -19.049999 26.6108
-9.5053196 -7.3284602 26.678499
-9.5053196 -19.049999 26.678499
-9.5625401 -7.3284602 26.7437
-9.5625401 -19.049999 26.7437
-9.62255 -7.3284602 26.8064
-9.62255 -19.049999 26.8064
-9.6852398 -7.3284602 26.8664
-9.6852398 -19.049999 26.8664
-9.7504797 -7.3284602 26.9237
-9.7504797 -19.049999 26.9237
-9.8181601 -7.3284602 26.978001
-9.8181601 -19.049999 26.978001
-9.8881397 -7.3284602 27.029301
-9.8881397 -19.049999 27.029301
-9.9603004 -7.3284602 27.077499
-10.0345 -7.3284602 27.122499
-9.9603004 -19.049999 27.077499
-10.0345 -19.049999 27.122499
-10.1106 -7.3284602 27.164301
-10.1106 -19.049999 27.164301
-10.1884 -7.3284602 27.2026
-10.1884 -19.049999 27.2026
-10.2678 -7.3284602 27.2376
-10.2678 -19.049999 27.2376
-10.3487 -7.3284602 27.268999
-10.3487 -19.049999 27.268999
-10.4309 -7.3284602 27.2969
-10.4309 -19.049999 27.2969
-10.5142 -7.3284602 27.321199
-10.5142 -19.049999 27.321199
-10.5985 -7.3284602 27.3419
-10.5985 -19.049999 27.3419
-10.6836 -7.3284602 27.358801
-10.6836 -19.049999 27.358801
-10.7694 -7.3284602 27.372
-10.7694 -19.049999 27.372
-10.8556 -7.3284602 27.381399
-10.8556 -19.049999 27.381399
-10.9422 -7.3284602 27.3871
-10.9422 -19.049999 27.3871
-11.029 -7.3284602 27.389
-11.029 -19.049999 27.389
-11.1157 -7.3284602 27.3871
-11.1157 -19.049999 27.3871
-11.2023 -7.3284602 27.381399
-11.2023 -19.049999 27.381399
-11.2886 -7.3284602 27.372
-11.2886 -19.049999 27.372
-11.3744 -7.3284602 27.358801
-11.3744 -19.049999 27.358801
-11.4595 -7.3284602 27.3419
-11.4595 -19.049999 27.3419
-11.5438 -7.3284602 27.321199
-11.5438 -19.049999 27.321199
-11.6271 -7.3284602 27.2969
-11.6271 -19.049999 27.2969
-11.7093 -7.3284602 27.268999
-11.7093 -19.049999 27.268999
-11.7901 -7.3284602 27.2376
-11.7901 -19.049999 27.2376
-11.8696 -7.3284602 27.2026
-11.8696 -19.049999 27.2026
-11.9474 -7.3284602 27.164301
-11.9474 -19.049999 27.164301
-12.0235 -7.3284602 27.122499
-12.0235 -19.049999 27.122499
-12.0977 -7.3284602 27.077499
-12.0977 -19.049999 27.077499
-12.1698 -7.3284602 27.029301
-12.1698 -19.049999 27.029301
-12.2398 -7.3284602 26.978001
-12.2398 -19.049999 26.978001
-12.3075 -7.3284602 26.9237
-12.3075 -19.049999 26.9237
-12.3727 -7.3284602 26.8664
-12.3727 -19.049999 26.8664
-12.4354 -7.3284602 26.8064
-12.4354 -19.049999 26.8064
-12.4954 -7.3284602 26.7437
-12.4954 -19.049999 26.7437
-12.5526 -7.3284602 26.678499
-12.5526 -19.049999 26.678499
-12.607 -7.3284602 26.6108
-12.607 -19.049999 26.6108
-12.6583 -7.3284602 26.5408
-12.6583 -19.049999 26.5408
-12.7065 -7.3284602 26.4687
-12.7065 -19.049999 26.4687
-12.7515 -7.3284602 26.394501
-12.7515 -19.049999 26.394501
-12.7933 -7.3284602 26.318399
-12.7933 -19.049999 26.318399
-12.8316 -7.3284602 26.240601
-12.8316 -19.049999 26.240601
-12.8666 -7.3284602 26.1612
-12.8666 -19.049999 26.1612
-12.898 -7.3284602 26.080299
-12.898 -19.049999 26.080299
-12.9259 -7.3284602 25.9981
-12.9259 -19.049999 25.9981
-12.9502 -7.3284602 25.914801
-12.9502 -19.049999 25.914801
-12.9708 -7.3284602 25.8305
-12.9708 -19.049999 25.8305
-12.9878 -7.3284602 25.745399
-12.9878 -19.049999 25.745399
-13.001 -7.3284602 25.659599
-13.001 -19.049999 25.659599
-13.0104 -7.3284602 25.5734
-13.0104 -19.049999 25.5734
-13.0161 -7.3284602 25.486799
-13.0161 -19.049999 25.486799
-13.018 -7.3284602 25.4
-13.018 -19.049999 25.4
-13.0161 -7.3284602 25.3132
-13.0161 -19.049999 25.3132
-13.0104 -7.3284602 25.226601
-13.0104 -19.049999 25.226601
-13.001 -7.3284602 25.1404
-13.001 -19.049999 25.1404
-12.9878 -7.3284602 25.0546
-12.9878 -19.049999 25.0546
-12.9708 -7.3284602 24.9695
-12.9708 -19.049999 24.9695
-12.9502 -7.3284602 24.885201
-12.9502 -19.049999 24.885201
-12.9259 -7.3284602 24.801901
-12.9259 -19.049999 24.801901
-12.898 -7.3284602 24.7197
-12.898 -19.049999 24.7197
-12.8666 -7.3284602 24.6388
-12.8666 -19.049999 24.6388
-12.8316 -7.3284602 24.559401
-12.8316 -19.049999 24.559401
-12.7933 -7.3284602 24.4816
-12.7933 -19.049999 24.4816
-12.7515 -7.3284602 24.4055
-12.7515 -19.049999 24.4055
-12.7065 -7.3284602 24.331301
-12.7065 -19.049999 24.331301
-12.6583 -7.3284602 24.259199
-12.6583 -19.049999 24.259199
-12.607 -7.3284602 24.189199
-12.607 -19.049999 24.189199
-12.5526 -7.3284602 24.1215
-12.5526 -19.049999 24.1215
-12.4954 -7.3284602 24.056299
-12.4954 -19.049999 24.056299
-12.4354 -7.3284602 23.993601
-12.4354 -19.049999 23.993601
-12.3727 -7.3284602 23.933599
-12.3727 -19.049999 23.933599
-12.3075 -7.3284602 23.876301
-12.3075 -19.049999 23.876301
-12.2398 -7.3284602 23.822001
-12.2398 -19.049999 23.822001
-12.1698 -7.3284602 23.7707
-12.1698 -19.049999 23.7707
-12.0977 -7.3284602 23.7225
-12.0977 -19.049999 23.7225
-12.0235 -7.3284602 23.6775
-12.0235 -19.049999 23.6775
-11.9474 -7.3284602 23.6357
-11.9474 -19.049999 23.6357
-11.8696 -7.3284602 23.597401
-11.8696 -19.049999 23.597401
-11.7901 -7.3284602 23.562401
-11.7901 -19.049999 23.562401
-11.7093 -7.3284602 23.531
-11.7093 -19.049999 23.531
-11.6271 -7.3284602 23.503099
-11.6271 -19.049999 23.503099
-11.5438 -7.3284602 23.4788
-11.5438 -19.049999 23.4788
-11.4595 -7.3284602 23.458099
-11.4595 -19.049999 23.458099
-11.3744 -7.3284602 23.4412
-11.3744 -19.049999 23.4412
-11.2886 -7.3284602 23.427999
-11.2886 -19.049999 23.427999
-11.2023 -7.3284602 23.4186
-11.2023 -19.049999 23.4186
-11.1157 -7.3284602 23.412901
-11.1157 -19.049999 23.412901
-11.029 -7.3284602 23.410999
-11.029 -19.049999 23.410999
-11.1714 -21.975 22.137501
-11.029 -21.975 25.4
-11.3136 -21.975 22.1469
-11.3192 -21.938101 22.083099
-11.4552 -21.975 22.162399
-11.596 -21.975 22.184
-11.7358 -21.975 22.2118
-11.7643 -21.898899 22.083099
-11.8742 -21.975 22.245701
-12.011 -21.975 22.285601
-12.1459 -21.975 22.3314
-12.2362 -21.8225 22.083099
-12.2787 -21.975 22.382999
-12.4091 -21.975 22.440399
-12.5369 -21.975 22.503401
-12.7556 -21.701401 22.083099
-12.6618 -21.975 22.571899
-12.7836 -21.975 22.6458
-12.902 -21.975 22.725
-13.0169 -21.975 22.809299
-13.1281 -21.975 22.898399
-13.2352 -21.975 22.992399
-13.3381 -21.975 23.0909
-13.4366 -21.975 23.1938
-13.5306 -21.975 23.3009
-13.6197 -21.975 23.4121
-13.704 -21.975 23.526899
-13.7831 -21.975 23.645399
-13.857 -21.975 23.7672
-13.9256 -21.975 23.892099
-13.9886 -21.975 24.019899
-14.0466 -21.938101 23.992901
-14.046 -21.975 24.150299
-14.0976 -21.975 24.2831
-14.1434 -21.975 24.417999
-14.2692 -21.898899 24.378401
-14.1833 -21.975 24.5548
-14.2171 -21.975 24.693199
-14.2449 -21.975 24.832899
-14.5051 -21.8225 24.7871
-14.2666 -21.975 24.973801
-14.2821 -21.975 25.1154
-14.2914 -21.975 25.257601
-14.7648 -21.701401 25.2369
-14.2946 -21.975 25.4
-14.2914 -21.975 25.5424
-14.2821 -21.975 25.684601
-14.2666 -21.975 25.8262
-14.2449 -21.975 25.9671
-14.2171 -21.975 26.1068
-14.1833 -21.975 26.245199
-14.1434 -21.975 26.382
-14.0976 -21.975 26.516899
-14.046 -21.975 26.6497
-13.9886 -21.975 26.7801
-13.9256 -21.975 26.9079
-13.857 -21.975 27.032801
-13.7831 -21.975 27.1546
-13.704 -21.975 27.2731
-13.7564 -21.938101 27.3097
-13.6197 -21.975 27.388
-13.5306 -21.975 27.4991
-13.4366 -21.975 27.606199
-13.5338 -21.898899 27.695299
-13.3381 -21.975 27.709101
-13.2352 -21.975 27.8076
-13.1281 -21.975 27.9016
-13.2979 -21.8225 28.103901
-13.0169 -21.975 27.9907
-12.902 -21.975 28.075001
-12.7836 -21.975 28.1541
-13.0382 -21.701401 28.553801
-12.6618 -21.975 28.2281
-12.944 -21.649099 28.7169
-12.5369 -21.975 28.2966
-12.4091 -21.975 28.3596
-12.2787 -21.975 28.417
-12.1459 -21.975 28.468599
-12.011 -21.975 28.5144
-11.8742 -21.975 28.5543
-11.7358 -21.975 28.5882
-11.596 -21.975 28.615999
-11.4552 -21.975 28.6376
-11.3136 -21.975 28.653099
-11.1714 -21.975 28.6625
-11.029 -21.975 28.6656
-10.8865 -21.975 28.6625
-10.7444 -21.975 28.653099
-10.7388 -21.938101 28.7169
-10.6027 -21.975 28.6376
-10.4619 -21.975 28.615999
-10.3222 -21.975 28.5882
-10.2937 -21.898899 28.7169
-10.1838 -21.975 28.5543
-10.047 -21.975 28.5144
-9.9120998 -21.975 28.468599
-9.8217402 -21.8225 28.7169
-9.7793102 -21.975 28.417
-9.6489 -21.975 28.3596
-9.5211201 -21.975 28.2966
-9.30233 -21.701401 28.7169
-9.3962002 -21.975 28.2281
-9.1139898 -21.649099 28.7169
-9.2743998 -21.975 28.1541
-9.1559401 -21.975 28.075001
-9.0410404 -21.975 27.9907
-8.9299202 -21.975 27.9016
-8.8227997 -21.975 27.8076
-8.7198801 -21.975 27.709101
-8.6213598 -21.975 27.606199
-8.52742 -21.975 27.4991
-8.4382401 -21.975 27.388
-8.3539896 -21.975 27.2731
-8.2748404 -21.975 27.1546
-8.2009201 -21.975 27.032801
-8.1323996 -21.975 26.9079
-8.0693798 -21.975 26.7801
-8.0113897 -21.938101 26.8071
-8.0120001 -21.975 26.6497
-7.9603601 -21.975 26.516899
-7.9145598 -21.975 26.382
-7.7888198 -21.898899 26.4216
-7.8746901 -21.975 26.245199
-7.8408298 -21.975 26.1068
-7.8130298 -21.975 25.9671
-7.5528598 -21.8225 26.012899
-7.7913599 -21.975 25.8262
-7.7758498 -21.975 25.684601
-7.76653 -21.975 25.5424
-7.29316 -21.701401 25.563101
-7.7634201 -21.975 25.4
-7.76653 -21.975 25.257601
-7.7758498 -21.975 25.1154
-7.7913599 -21.975 24.973801
-7.8130298 -21.975 24.832899
-7.8408298 -21.975 24.693199
-7.8746901 -21.975 24.5548
-7.9145598 -21.975 24.417999
-7.9603601 -21.975 24.2831
-8.0120001 -21.975 24.150299
-8.0693798 -21.975 24.019899
-8.1323996 -21.975 23.892099
-8.2009201 -21.975 23.7672
-8.2748404 -21.975 23.645399
-8.3539896 -21.975 23.526899
-8.3015804 -21.938101 23.490299
-8.4382401 -21.975 23.4121
-8.52742 -21.975 23.3009
-8.6213598 -21.975 23.1938
-8.5241499 -21.898899 23.1047
-8.7198801 -21.975 23.0909
-8.8227997 -21.975 22.992399
-8.9299202 -21.975 22.898399
-8.7601099 -21.8225 22.6961
-9.0410404 -21.975 22.809299
-9.1559401 -21.975 22.725
-9.2743998 -21.975 22.6458
-9.0198202 -21.701401 22.246201
-9.3962002 -21.975 22.571899
-9.5211201 -21.975 22.503401
-9.6489 -21.975 22.440399
-9.7793102 -21.975 22.382999
-9.9120998 -21.975 22.3314
-10.047 -21.975 22.285601
-10.1838 -21.975 22.245701
-10.3222 -21.975 22.2118
-10.4619 -21.975 22.184
-10.6027 -21.975 22.162399
-10.7444 -21.975 22.1469
-10.8865 -21.975 22.137501
-11.029 -21.975 22.134399
-9.1139898 -19.450001 22.083099
-12.944 -19.450001 22.083099
-7.1989899 -19.450001 25.4
-14.859 -19.450001 25.4
-7.1989899 -21.649099 25.4
-9.02139 -21.7006 28.556499
-7.4695401 -21.7876 25.868601
-7.3818102 -21.746799 25.7167
-8.9298296 -21.7474 28.3979
-8.8434296 -21.7876 28.248301
-8.7601099 -21.8225 28.103901
-7.71211 -21.8778 26.288799
-7.6335802 -21.8524 26.1527
-8.67939 -21.8524 27.9641
-8.6008596 -21.8778 27.8281
-8.5241499 -21.898899 27.695299
-7.9381499 -21.9289 26.6803
-7.8640599 -21.9158 26.551901
-8.4489098 -21.9158 27.564899
-8.3748198 -21.9289 27.4366
-8.3015804 -21.938101 27.3097
-8.2289 -21.9436 27.183901
-8.1564903 -21.9454 27.058399
-8.0840797 -21.9436 26.933001
-12.7588 -21.7006 28.7169
-9.6550903 -21.7876 28.7169
-9.47964 -21.746799 28.7169
-12.5757 -21.7474 28.7169
-12.4029 -21.7876 28.7169
-12.2362 -21.8225 28.7169
-10.1402 -21.8778 28.7169
-9.98318 -21.8524 28.7169
-12.0748 -21.8524 28.7169
-11.9177 -21.8778 28.7169
-11.7643 -21.898899 28.7169
-10.5923 -21.9289 28.7169
-9.1139898 -19.450001 28.7169
-10.4441 -21.9158 28.7169
-11.6138 -21.9158 28.7169
-11.4657 -21.9289 28.7169
-11.3192 -21.938101 28.7169
-11.1738 -21.9436 28.7169
-11.029 -21.9454 28.7169
-10.8842 -21.9436 28.7169
-9.1139898 -21.649099 22.083099
-7.2915802 -21.7006 25.239599
-8.8434296 -21.7876 22.551701
-8.93116 -21.746799 22.399799
-7.3831401 -21.7474 25.080999
-7.4695401 -21.7876 24.9314
-7.5528598 -21.8225 24.7871
-8.6008596 -21.8778 22.971901
-8.67939 -21.8524 22.835899
-7.6335802 -21.8524 24.647301
-7.71211 -21.8778 24.5112
-7.7888198 -21.898899 24.378401
-8.3748198 -21.9289 23.3634
-8.4489098 -21.9158 23.2351
-7.8640599 -21.9158 24.2481
-7.9381499 -21.9289 24.119699
-8.0113897 -21.938101 23.992901
-8.0840797 -21.9436 23.867001
-8.1564903 -21.9454 23.7416
-8.2289 -21.9436 23.6161
-12.944 -21.649099 22.083099
-9.2991695 -21.7006 22.083099
-12.4029 -21.7876 22.083099
-12.5783 -21.746799 22.083099
-9.4822998 -21.7474 22.083099
-9.6550903 -21.7876 22.083099
-9.8217402 -21.8225 22.083099
-11.9177 -21.8778 22.083099
-12.0748 -21.8524 22.083099
-9.98318 -21.8524 22.083099
-10.1402 -21.8778 22.083099
-10.2937 -21.898899 22.083099
-11.4657 -21.9289 22.083099
-11.6138 -21.9158 22.083099
-10.4441 -21.9158 22.083099
-10.5923 -21.9289 22.083099
-10.7388 -21.938101 22.083099
-10.8842 -21.9436 22.083099
-11.029 -21.9454 22.083099
-11.1738 -21.9436 22.083099
-14.859 -21.649099 25.4
-13.0366 -21.7006 22.2435
-14.5884 -21.7876 24.9314
-14.6762 -21.746799 25.0833
-13.1281 -21.7474 22.4021
-13.2145 -21.7876 22.551701
-13.2979 -21.8225 22.6961
-14.3459 -21.8778 24.5112
-14.4244 -21.8524 24.647301
-13.3786 -21.8524 22.835899
-13.4571 -21.8778 22.971901
-13.5338 -21.898899 23.1047
-14.1198 -21.9289 24.119699
-14.1939 -21.9158 24.2481
-13.6091 -21.9158 23.2351
-13.6831 -21.9289 23.3634
-13.7564 -21.938101 23.490299
-13.8291 -21.9436 23.6161
-13.9015 -21.9454 23.7416
-13.9739 -21.9436 23.867001
-14.7664 -21.7006 25.5604
-13.2145 -21.7876 28.248301
-13.1268 -21.746799 28.4002
-14.6748 -21.7474 25.719
-14.5884 -21.7876 25.868601
-14.5051 -21.8225 26.012899
-13.4571 -21.8778 27.8281
-13.3786 -21.8524 27.9641
-14.4244 -21.8524 26.1527
-14.3459 -21.8778 26.288799
-14.2692 -21.898899 26.4216
-13.6831 -21.9289 27.4366
-12.944 -19.450001 28.7169
-13.6091 -21.9158 27.564899
-14.1939 -21.9158 26.551901
-14.1198 -21.9289 26.6803
-14.0466 -21.938101 26.8071
-13.9739 -21.9436 26.933001
-13.9015 -21.9454 27.058399
-13.8291 -21.9436 27.183901
