# .PCD v0.7 - Point Cloud Data file format
VERSION 0.7
FIELDS x y z
SIZE 4 4 4
TYPE F F F
COUNT 1 1 1
WIDTH 733
HEIGHT 1
VIEWPOINT 0 0 0 1 0 0 0
POINTS 733
DATA ascii
-38.094398 6.8579998 -2.98036
-41.197399 6.8579998 2.98036
-42.993099 6.8579998 0.29284301
-43.002701 6.8579998 0.146561
-43.005901 6.8579998 0
-37.9659 6.8579998 -2.9098499
-37.840599 6.8579998 -2.8338001
-37.7187 6.8579998 -2.7523501
-37.600498 6.8579998 -2.6656699
-37.486099 6.8579998 -2.57391
-37.3759 6.8579998 -2.4772501
-37.27 6.8579998 -2.37588
-37.168598 6.8579998 -2.26998
-37.071999 6.8579998 -2.15977
-40.931702 6.8579998 -3.1042399
-42.9548 6.8579998 -0.58345801
-36.2859 6.8579998 -0
-42.479698 6.8579998 -1.80533
-42.398201 6.8579998 -1.92722
-42.803299 6.8579998 1.1491899
-42.850399 6.8579998 1.01037
-42.891399 6.8579998 0.86963201
-38.918701 6.8579998 -3.28035
-38.776299 6.8579998 -3.2455101
-38.635502 6.8579998 -3.2044899
-38.4967 6.8579998 -3.1573701
-38.3601 6.8579998 -3.1042399
-38.225899 6.8579998 -3.0451901
-42.803299 6.8579998 -1.1491899
-42.3116 6.8579998 -2.04544
-42.219799 6.8579998 -2.15977
-42.1231 6.8579998 -2.26998
-42.926201 6.8579998 0.72723699
-42.9548 6.8579998 0.58345801
-42.9771 6.8579998 0.438568
-38.094398 6.8579998 2.98036
-38.225899 6.8579998 3.0451901
-38.3601 6.8579998 3.1042399
-36.441399 6.8579998 -1.01037
-36.488499 6.8579998 -1.1491899
-36.400398 6.8579998 -0.86963201
-36.365501 6.8579998 -0.72723699
-36.336899 6.8579998 -0.58345801
-36.314602 6.8579998 -0.438568
-36.298698 6.8579998 -0.29284301
-36.289101 6.8579998 -0.146561
-41.325901 6.8579998 -2.9098499
-41.197399 6.8579998 -2.98036
-41.065899 6.8579998 -3.0451901
-40.795101 6.8579998 -3.1573701
-40.6563 6.8579998 -3.2044899
-40.515499 6.8579998 -3.2455101
-43.002701 6.8579998 -0.146561
-42.993099 6.8579998 -0.29284301
-42.9771 6.8579998 -0.438568
-42.926201 6.8579998 -0.72723699
-42.891399 6.8579998 -0.86963201
-42.850399 6.8579998 -1.01037
-42.021801 6.8579998 -2.37588
-41.915901 6.8579998 -2.4772501
-41.805698 6.8579998 -2.57391
-41.691299 6.8579998 -2.6656699
-41.573101 6.8579998 -2.7523501
-41.451199 6.8579998 -2.8338001
-42.3116 6.8579998 2.04544
-42.398201 6.8579998 1.92722
-40.645901 6.8579998 0
-42.479698 6.8579998 1.80533
-42.555698 6.8579998 1.6799999
-42.626202 6.8579998 1.5514801
-42.691101 6.8579998 1.42
-42.750099 6.8579998 1.28582
-38.4967 6.8579998 3.1573701
-38.635502 6.8579998 3.2044899
-38.776299 6.8579998 3.2455101
-40.3731 6.8579998 3.28035
-40.515499 6.8579998 3.2455101
-40.6563 6.8579998 3.2044899
-40.795101 6.8579998 3.1573701
-40.931702 6.8579998 3.1042399
-41.065899 6.8579998 3.0451901
-36.289101 6.8579998 0.146561
-36.298698 6.8579998 0.29284301
-36.314602 6.8579998 0.438568
-36.336899 6.8579998 0.58345801
-36.365501 6.8579998 0.72723699
-36.400398 6.8579998 0.86963201
-36.980202 6.8579998 2.04544
-36.893501 6.8579998 1.92722
-37.071999 6.8579998 2.15977
-37.168598 6.8579998 2.26998
-37.27 6.8579998 2.37588
-37.7187 6.8579998 2.7523501
-37.840599 6.8579998 2.8338001
-37.9659 6.8579998 2.9098499
-36.980202 6.8579998 -2.04544
-36.893501 6.8579998 -1.92722
-38.645901 6.8579998 0
-36.812099 6.8579998 -1.80533
-36.736 6.8579998 -1.6799999
-36.665501 6.8579998 -1.5514801
-36.6007 6.8579998 -1.42
-36.541698 6.8579998 -1.28582
-39.938702 6.8579998 3.3472099
-40.084499 6.8579998 3.33125
-40.229401 6.8579998 3.3089499
-36.441399 6.8579998 1.01037
-36.488499 6.8579998 1.1491899
-36.541698 6.8579998 1.28582
-36.6007 6.8579998 1.42
-36.665501 6.8579998 1.5514801
-39.145901 6.8579998 0.86602497
-36.736 6.8579998 1.6799999
-36.812099 6.8579998 1.80533
-37.3759 6.8579998 2.4772501
-37.486099 6.8579998 2.57391
-37.600498 6.8579998 2.6656699
-40.3731 6.8579998 -3.28035
-40.229401 6.8579998 -3.3089499
-40.084499 6.8579998 -3.33125
-42.750099 6.8579998 -1.28582
-42.691101 6.8579998 -1.42
-40.145901 6.8579998 -0.86602497
-42.626202 6.8579998 -1.5514801
-42.555698 6.8579998 -1.6799999
-38.918701 6.8579998 3.28035
-39.062401 6.8579998 3.3089499
-39.207298 6.8579998 3.33125
-39.938702 6.8579998 -3.3472099
-39.7925 6.8579998 -3.3568001
-39.145901 6.8579998 -0.86602497
-39.499298 6.8579998 -3.3568001
-39.353001 6.8579998 -3.3472099
-39.207298 6.8579998 -3.33125
-39.062401 6.8579998 -3.3089499
-41.325901 6.8579998 2.9098499
-41.451199 6.8579998 2.8338001
-41.573101 6.8579998 2.7523501
-41.691299 6.8579998 2.6656699
-41.805698 6.8579998 2.57391
-41.915901 6.8579998 2.4772501
-42.021801 6.8579998 2.37588
-42.1231 6.8579998 2.26998
-42.219799 6.8579998 2.15977
-39.353001 6.8579998 3.3472099
-39.499298 6.8579998 3.3568001
-39.645901 6.8579998 3.3599999
-39.7925 6.8579998 3.3568001
-39.645901 6.8579998 -3.3599999
-39.580898 8.7180004 -1.48908
-39.515999 8.7180004 -1.48483
-39.451302 8.7180004 -1.4777499
-39.3871 8.7180004 -1.46786
-39.323299 8.7180004 -1.45517
-39.260101 8.7180004 -1.43971
-39.197701 8.7180004 -1.42152
-39.136101 8.7180004 -1.40061
-39.0755 8.7180004 -1.37704
-39.015999 8.7180004 -1.35085
-38.957699 8.7180004 -1.32209
-38.9006 8.7180004 -1.29081
-38.845001 8.7180004 -1.2570699
-38.791 8.7180004 -1.22095
-38.738499 8.7180004 -1.18249
-38.687801 8.7180004 -1.14179
-38.638901 8.7180004 -1.09891
-38.5919 8.7180004 -1.0539401
-38.547001 8.7180004 -1.00697
-38.504101 8.7180004 -0.95807499
-38.463402 8.7180004 -0.907359
-38.4249 8.7180004 -0.85491598
-38.388802 8.7180004 -0.80084503
-38.355099 8.7180004 -0.74524999
-38.323799 8.7180004 -0.688236
-38.294998 8.7180004 -0.62991297
-38.268799 8.7180004 -0.57038999
-38.2453 8.7180004 -0.509781
-38.2244 8.7180004 -0.44820201
-38.2062 8.7180004 -0.38576999
-38.190701 8.7180004 -0.32260299
-38.178001 8.7180004 -0.25882301
-38.168098 8.7180004 -0.19454899
-38.161098 8.7180004 -0.129906
-38.156799 8.7180004 -0.065015003
-38.155399 8.7180004 -0
-38.156799 8.7180004 0.065015003
-38.161098 8.7180004 0.129906
-38.168098 8.7180004 0.19454899
-38.178001 8.7180004 0.25882301
-38.190701 8.7180004 0.32260299
-38.2062 8.7180004 0.38576999
-38.2244 8.7180004 0.44820201
-38.2453 8.7180004 0.509781
-38.268799 8.7180004 0.57038999
-38.294998 8.7180004 0.62991297
-38.323799 8.7180004 0.688236
-38.355099 8.7180004 0.74524999
-38.388802 8.7180004 0.80084503
-38.4249 8.7180004 0.85491598
-38.463402 8.7180004 0.907359
-38.504101 8.7180004 0.95807499
-38.547001 8.7180004 1.00697
-38.5919 8.7180004 1.0539401
-38.638901 8.7180004 1.09891
-38.687801 8.7180004 1.14179
-38.738499 8.7180004 1.18249
-38.791 8.7180004 1.22095
-38.845001 8.7180004 1.2570699
-38.9006 8.7180004 1.29081
-38.957699 8.7180004 1.32209
-39.015999 8.7180004 1.35085
-39.0755 8.7180004 1.37704
-39.136101 8.7180004 1.40061
-39.197701 8.7180004 1.42152
-39.260101 8.7180004 1.43971
-39.323299 8.7180004 1.45517
-39.3871 8.7180004 1.46786
-39.451302 8.7180004 1.4777499
-39.515999 8.7180004 1.48483
-39.580898 8.7180004 1.48908
-39.645901 8.7180004 1.4905
-39.710899 8.7180004 1.48908
-39.775799 8.7180004 1.48483
-39.840401 8.7180004 1.4777499
-39.904701 8.7180004 1.46786
-39.968498 8.7180004 1.45517
-40.0317 8.7180004 1.43971
-40.094101 8.7180004 1.42152
-40.155701 8.7180004 1.40061
-40.216301 8.7180004 1.37704
-40.275799 8.7180004 1.35085
-40.334099 8.7180004 1.32209
-40.391102 8.7180004 1.29081
-40.446701 8.7180004 1.2570699
-40.500801 8.7180004 1.22095
-40.5532 8.7180004 1.18249
-40.604 8.7180004 1.14179
-40.652901 8.7180004 1.09891
-40.699799 8.7180004 1.0539401
-40.744801 8.7180004 1.00697
-40.787701 8.7180004 0.95807499
-40.8284 8.7180004 0.907359
-40.866798 8.7180004 0.85491598
-40.903 8.7180004 0.80084503
-40.936699 8.7180004 0.74524999
-40.967999 8.7180004 0.688236
-40.9967 8.7180004 0.62991297
-41.0229 8.7180004 0.57038999
-41.046501 8.7180004 0.509781
-41.067402 8.7180004 0.44820201
-41.085602 8.7180004 0.38576999
-41.101101 8.7180004 0.32260299
-41.113701 8.7180004 0.25882301
-41.1236 8.7180004 0.19454899
-41.130699 8.7180004 0.129906
-41.134998 8.7180004 0.065015003
-41.136398 8.7180004 0
-41.134998 8.7180004 -0.065015003
-41.130699 8.7180004 -0.129906
-41.1236 8.7180004 -0.19454899
-41.113701 8.7180004 -0.25882301
-41.101101 8.7180004 -0.32260299
-41.085602 8.7180004 -0.38576999
-41.067402 8.7180004 -0.44820201
-41.046501 8.7180004 -0.509781
-41.0229 8.7180004 -0.57038999
-40.9967 8.7180004 -0.62991297
-40.967999 8.7180004 -0.688236
-40.936699 8.7180004 -0.74524999
-40.903 8.7180004 -0.80084503
-40.866798 8.7180004 -0.85491598
-40.8284 8.7180004 -0.907359
-40.787701 8.7180004 -0.95807499
-40.744801 8.7180004 -1.00697
-40.699799 8.7180004 -1.0539401
-40.652901 8.7180004 -1.09891
-40.604 8.7180004 -1.14179
-40.5532 8.7180004 -1.18249
-40.500801 8.7180004 -1.22095
-40.446701 8.7180004 -1.2570699
-40.391102 8.7180004 -1.29081
-40.334099 8.7180004 -1.32209
-40.275799 8.7180004 -1.35085
-40.216301 8.7180004 -1.37704
-40.155701 8.7180004 -1.40061
-40.094101 8.7180004 -1.42152
-40.0317 8.7180004 -1.43971
-39.968498 8.7180004 -1.45517
-39.904701 8.7180004 -1.46786
-39.840401 8.7180004 -1.4777499
-39.775799 8.7180004 -1.48483
-39.645901 8.7180004 -1.4905
-39.710899 8.7180004 -1.48908
-40.145901 6.8579998 0.86602497
-39.145901 7.9580002 0.86602497
-38.645901 7.9580002 0
-39.145901 7.9580002 -0.86602497
-40.145901 7.9580002 -0.86602497
-40.645901 7.9580002 0
-40.145901 7.9580002 0.86602497
-39.580898 14.6493 -1.48908
-39.534199 14.858 -1.27695
-39.3685 14.858 -1.2514499
-39.2075 14.858 -1.20453
-39.054001 14.858 -1.137
-38.910702 14.858 -1.05001
-38.7799 14.858 -0.94506401
-38.664001 14.858 -0.82394397
-38.5648 14.858 -0.68872702
-38.4842 14.858 -0.54172498
-38.423401 14.858 -0.385454
-38.383499 14.858 -0.222587
-38.365299 14.858 -0.055913001
-38.3689 14.858 0.111719
-38.394402 14.858 0.277439
-38.441399 14.858 0.43841201
-38.5089 14.858 0.591883
-38.595901 14.858 0.73522699
-38.700802 14.858 0.86599201
-38.821899 14.858 0.98193902
-38.957199 14.858 1.08108
-39.104198 14.858 1.1617301
-39.260399 14.858 1.2225
-39.423302 14.858 1.26236
-39.757599 14.858 1.27695
-39.923302 14.858 1.2514499
-40.084301 14.858 1.20453
-40.237801 14.858 1.137
-40.3811 14.858 1.05001
-40.511902 14.858 0.94506401
-40.6278 14.858 0.82394397
-40.727001 14.858 0.68872702
-40.807598 14.858 0.54172498
-40.868401 14.858 0.385454
-40.908199 14.858 0.222587
-40.926498 14.858 0.055913001
-40.922798 14.858 -0.111719
-40.897301 14.858 -0.277439
-40.850399 14.858 -0.43841201
-40.782902 14.858 -0.591883
-40.6959 14.858 -0.73522699
-40.591 14.858 -0.86599201
-40.469799 14.858 -0.98193902
-40.334599 14.858 -1.08108
-40.187599 14.858 -1.1617301
-40.0313 14.858 -1.2225
-39.8685 14.858 -1.26236
-39.701801 14.858 -1.28061
-39.580898 8.7180004 -1.48908
-39.515999 8.7180004 -1.48483
-39.451302 8.7180004 -1.4777499
-39.3871 8.7180004 -1.46786
-39.323299 8.7180004 -1.45517
-39.260101 8.7180004 -1.43971
-39.197701 8.7180004 -1.42152
-39.136101 8.7180004 -1.40061
-39.0755 8.7180004 -1.37704
-39.015999 8.7180004 -1.35085
-38.957699 8.7180004 -1.32209
-38.9006 8.7180004 -1.29081
-38.845001 8.7180004 -1.2570699
-38.791 8.7180004 -1.22095
-38.738499 8.7180004 -1.18249
-38.687801 8.7180004 -1.14179
-38.638901 8.7180004 -1.09891
-38.5919 8.7180004 -1.0539401
-38.547001 8.7180004 -1.00697
-38.504101 8.7180004 -0.95807499
-38.463402 8.7180004 -0.907359
-38.4249 8.7180004 -0.85491598
-38.388802 8.7180004 -0.80084503
-38.355099 8.7180004 -0.74524999
-38.323799 8.7180004 -0.688236
-38.294998 8.7180004 -0.62991297
-38.268799 8.7180004 -0.57038999
-38.2453 8.7180004 -0.509781
-38.2244 8.7180004 -0.44820201
-38.2062 8.7180004 -0.38576999
-38.190701 8.7180004 -0.32260299
-38.178001 8.7180004 -0.25882301
-38.168098 8.7180004 -0.19454899
-38.161098 8.7180004 -0.129906
-38.156799 8.7180004 -0.065015003
-38.155399 8.7180004 -0
-38.156799 8.7180004 0.065015003
-38.161098 8.7180004 0.129906
-38.168098 8.7180004 0.19454899
-38.178001 8.7180004 0.25882301
-38.190701 8.7180004 0.32260299
-38.2062 8.7180004 0.38576999
-38.2244 8.7180004 0.44820201
-38.2453 8.7180004 0.509781
-38.268799 8.7180004 0.57038999
-38.294998 8.7180004 0.62991297
-38.323799 8.7180004 0.688236
-38.355099 8.7180004 0.74524999
-38.388802 8.7180004 0.80084503
-38.4249 8.7180004 0.85491598
-38.463402 8.7180004 0.907359
-38.504101 8.7180004 0.95807499
-38.547001 8.7180004 1.00697
-38.5919 8.7180004 1.0539401
-38.638901 8.7180004 1.09891
-38.687801 8.7180004 1.14179
-38.738499 8.7180004 1.18249
-38.791 8.7180004 1.22095
-38.845001 8.7180004 1.2570699
-38.9006 8.7180004 1.29081
-38.957699 8.7180004 1.32209
-39.015999 8.7180004 1.35085
-39.0755 8.7180004 1.37704
-39.136101 8.7180004 1.40061
-39.197701 8.7180004 1.42152
-39.260101 8.7180004 1.43971
-39.323299 8.7180004 1.45517
-39.3871 8.7180004 1.46786
-39.451302 8.7180004 1.4777499
-39.515999 8.7180004 1.48483
-39.580898 8.7180004 1.48908
-39.645901 8.7180004 1.4905
-39.710899 8.7180004 1.48908
-39.775799 8.7180004 1.48483
-39.840401 8.7180004 1.4777499
-39.904701 8.7180004 1.46786
-39.968498 8.7180004 1.45517
-40.0317 8.7180004 1.43971
-40.094101 8.7180004 1.42152
-40.155701 8.7180004 1.40061
-40.216301 8.7180004 1.37704
-40.275799 8.7180004 1.35085
-40.334099 8.7180004 1.32209
-40.391102 8.7180004 1.29081
-40.446701 8.7180004 1.2570699
-40.500801 8.7180004 1.22095
-40.5532 8.7180004 1.18249
-40.604 8.7180004 1.14179
-40.652901 8.7180004 1.09891
-40.699799 8.7180004 1.0539401
-40.744801 8.7180004 1.00697
-40.787701 8.7180004 0.95807499
-40.8284 8.7180004 0.907359
-40.866798 8.7180004 0.85491598
-40.903 8.7180004 0.80084503
-40.936699 8.7180004 0.74524999
-40.967999 8.7180004 0.688236
-40.9967 8.7180004 0.62991297
-41.0229 8.7180004 0.57038999
-41.046501 8.7180004 0.509781
-41.067402 8.7180004 0.44820201
-41.085602 8.7180004 0.38576999
-41.101101 8.7180004 0.32260299
-41.113701 8.7180004 0.25882301
-41.1236 8.7180004 0.19454899
-41.130699 8.7180004 0.129906
-41.134998 8.7180004 0.065015003
-41.136398 8.7180004 0
-41.134998 8.7180004 -0.065015003
-41.130699 8.7180004 -0.129906
-41.1236 8.7180004 -0.19454899
-41.113701 8.7180004 -0.25882301
-41.101101 8.7180004 -0.32260299
-41.085602 8.7180004 -0.38576999
-41.067402 8.7180004 -0.44820201
-41.046501 8.7180004 -0.509781
-41.0229 8.7180004 -0.57038999
-40.9967 8.7180004 -0.62991297
-40.967999 8.7180004 -0.688236
-40.936699 8.7180004 -0.74524999
-40.903 8.7180004 -0.80084503
-40.866798 8.7180004 -0.85491598
-40.8284 8.7180004 -0.907359
-40.787701 8.7180004 -0.95807499
-40.744801 8.7180004 -1.00697
-40.699799 8.7180004 -1.0539401
-40.652901 8.7180004 -1.09891
-40.604 8.7180004 -1.14179
-40.5532 8.7180004 -1.18249
-40.500801 8.7180004 -1.22095
-40.446701 8.7180004 -1.2570699
-40.391102 8.7180004 -1.29081
-40.334099 8.7180004 -1.32209
-40.275799 8.7180004 -1.35085
-40.216301 8.7180004 -1.37704
-40.155701 8.7180004 -1.40061
-40.094101 8.7180004 -1.42152
-40.0317 8.7180004 -1.43971
-39.968498 8.7180004 -1.45517
-39.904701 8.7180004 -1.46786
-39.840401 8.7180004 -1.4777499
-39.775799 8.7180004 -1.48483
-39.710899 8.7180004 -1.48908
-39.645901 8.7180004 -1.4905
-39.515999 14.6493 -1.48483
-39.451302 14.6493 -1.4777499
-39.3871 14.6493 -1.46786
-39.323299 14.6493 -1.45517
-39.260101 14.6493 -1.43971
-39.197701 14.6493 -1.42152
-39.136101 14.6493 -1.40061
-39.0755 14.6493 -1.37704
-39.015999 14.6493 -1.35085
-38.957699 14.6493 -1.32209
-38.9006 14.6493 -1.29081
-38.845001 14.6493 -1.2570699
-38.791 14.6493 -1.22095
-38.738499 14.6493 -1.18249
-38.687801 14.6493 -1.14179
-38.638901 14.6493 -1.09891
-38.5919 14.6493 -1.0539401
-38.547001 14.6493 -1.00697
-38.504101 14.6493 -0.95807499
-38.463402 14.6493 -0.907359
-38.4249 14.6493 -0.85491598
-38.388802 14.6493 -0.80084503
-38.355099 14.6493 -0.74524999
-38.323799 14.6493 -0.688236
-38.294998 14.6493 -0.62991297
-38.268799 14.6493 -0.57038999
-38.2453 14.6493 -0.509781
-38.2244 14.6493 -0.44820201
-38.2062 14.6493 -0.38576999
-38.190701 14.6493 -0.32260299
-38.178001 14.6493 -0.25882301
-38.168098 14.6493 -0.19454899
-38.161098 14.6493 -0.129906
-38.156799 14.6493 -0.065015003
-38.155399 14.6493 -0
-38.156799 14.6493 0.065015003
-38.161098 14.6493 0.129906
-38.168098 14.6493 0.19454899
-38.178001 14.6493 0.25882301
-38.190701 14.6493 0.32260299
-38.2062 14.6493 0.38576999
-38.2244 14.6493 0.44820201
-38.2453 14.6493 0.509781
-38.268799 14.6493 0.57038999
-38.294998 14.6493 0.62991297
-38.323799 14.6493 0.688236
-38.355099 14.6493 0.74524999
-38.388802 14.6493 0.80084503
-38.4249 14.6493 0.85491598
-38.463402 14.6493 0.907359
-38.504101 14.6493 0.95807499
-38.547001 14.6493 1.00697
-38.5919 14.6493 1.0539401
-38.638901 14.6493 1.09891
-38.687801 14.6493 1.14179
-38.738499 14.6493 1.18249
-38.791 14.6493 1.22095
-38.845001 14.6493 1.2570699
-38.9006 14.6493 1.29081
-38.957699 14.6493 1.32209
-39.015999 14.6493 1.35085
-39.0755 14.6493 1.37704
-39.136101 14.6493 1.40061
-39.197701 14.6493 1.42152
-39.260101 14.6493 1.43971
-39.323299 14.6493 1.45517
-39.3871 14.6493 1.46786
-39.451302 14.6493 1.4777499
-39.515999 14.6493 1.48483
-39.580898 14.6493 1.48908
-39.645901 14.6493 1.4905
-39.710899 14.6493 1.48908
-39.775799 14.6493 1.48483
-39.840401 14.6493 1.4777499
-39.904701 14.6493 1.46786
-39.968498 14.6493 1.45517
-40.0317 14.6493 1.43971
-40.094101 14.6493 1.42152
-40.155701 14.6493 1.40061
-40.216301 14.6493 1.37704
-40.275799 14.6493 1.35085
-40.334099 14.6493 1.32209
-40.391102 14.6493 1.29081
-40.446701 14.6493 1.2570699
-40.500801 14.6493 1.22095
-40.5532 14.6493 1.18249
-40.604 14.6493 1.14179
-40.652901 14.6493 1.09891
-40.699799 14.6493 1.0539401
-40.744801 14.6493 1.00697
-40.787701 14.6493 0.95807499
-40.8284 14.6493 0.907359
-40.866798 14.6493 0.85491598
-40.903 14.6493 0.80084503
-40.936699 14.6493 0.74524999
-40.967999 14.6493 0.688236
-40.9967 14.6493 0.62991297
-41.0229 14.6493 0.57038999
-41.046501 14.6493 0.509781
-41.067402 14.6493 0.44820201
-41.085602 14.6493 0.38576999
-41.101101 14.6493 0.32260299
-41.113701 14.6493 0.25882301
-41.1236 14.6493 0.19454899
-41.130699 14.6493 0.129906
-41.134998 14.6493 0.065015003
-41.136398 14.6493 0
-41.134998 14.6493 -0.065015003
-41.130699 14.6493 -0.129906
-41.1236 14.6493 -0.19454899
-41.113701 14.6493 -0.25882301
-41.101101 14.6493 -0.32260299
-41.085602 14.6493 -0.38576999
-41.067402 14.6493 -0.44820201
-41.046501 14.6493 -0.509781
-41.0229 14.6493 -0.57038999
-40.9967 14.6493 -0.62991297
-40.967999 14.6493 -0.688236
-40.936699 14.6493 -0.74524999
-40.903 14.6493 -0.80084503
-40.866798 14.6493 -0.85491598
-40.8284 14.6493 -0.907359
-40.787701 14.6493 -0.95807499
-40.744801 14.6493 -1.00697
-40.699799 14.6493 -1.0539401
-40.652901 14.6493 -1.09891
-40.604 14.6493 -1.14179
-40.5532 14.6493 -1.18249
-40.500801 14.6493 -1.22095
-40.446701 14.6493 -1.2570699
-40.391102 14.6493 -1.29081
-40.334099 14.6493 -1.32209
-40.275799 14.6493 -1.35085
-40.216301 14.6493 -1.37704
-40.155701 14.6493 -1.40061
-40.094101 14.6493 -1.42152
-40.0317 14.6493 -1.43971
-39.968498 14.6493 -1.45517
-39.904701 14.6493 -1.46786
-39.840401 14.6493 -1.4777499
-39.775799 14.6493 -1.48483
-39.710899 14.6493 -1.48908
-39.645901 14.6493 -1.4905
-39.701801 14.858 1.28061
-39.645901 14.858 1.28183
-39.59 14.858 1.28061
-39.8685 14.858 1.26236
-39.813202 14.858 1.27086
-40.0313 14.858 1.2225
-39.977699 14.858 1.23815
-40.187599 14.858 1.1617301
-40.136398 14.858 1.18426
-40.334599 14.858 1.08108
-40.2868 14.858 1.1101
-40.469799 14.858 0.98193902
-40.426201 14.858 1.01694
-40.591 14.858 0.86599201
-40.552299 14.858 0.90639102
-40.6959 14.858 0.73522699
-40.6628 14.858 0.78032899
-40.782902 14.858 0.591883
-40.756001 14.858 0.64091498
-40.850399 14.858 0.43841201
-40.830101 14.858 0.49053499
-40.897301 14.858 0.277439
-40.883999 14.858 0.33176199
-40.922798 14.858 0.111719
-40.916801 14.858 0.167312
-40.926498 14.858 -0.055913001
-40.9277 14.858 0
-40.908199 14.858 -0.222587
-40.916801 14.858 -0.167312
-40.868401 14.858 -0.385454
-40.883999 14.858 -0.33176199
-40.807598 14.858 -0.54172498
-40.830101 14.858 -0.49053499
-40.727001 14.858 -0.68872702
-40.756001 14.858 -0.64091498
-40.6278 14.858 -0.82394397
-40.6628 14.858 -0.78032899
-40.511902 14.858 -0.94506401
-40.552299 14.858 -0.90639102
-40.3811 14.858 -1.05001
-40.426201 14.858 -1.01694
-40.237801 14.858 -1.137
-40.2868 14.858 -1.1101
-40.084301 14.858 -1.20453
-40.136398 14.858 -1.18426
-39.923302 14.858 -1.2514499
-39.977699 14.858 -1.23815
-39.757599 14.858 -1.27695
-39.813202 14.858 -1.27086
-39.59 14.858 -1.28061
-39.645901 14.858 -1.28183
-39.423302 14.858 -1.26236
-39.4786 14.858 -1.27086
-39.260399 14.858 -1.2225
-39.314098 14.858 -1.23815
-39.104198 14.858 -1.1617301
-39.155399 14.858 -1.18426
-38.957199 14.858 -1.08108
-39.005001 14.858 -1.1101
-38.821899 14.858 -0.98193902
-38.865601 14.858 -1.01694
-38.700802 14.858 -0.86599201
-38.739498 14.858 -0.90639102
-38.595901 14.858 -0.73522699
-38.628899 14.858 -0.78032899
-38.5089 14.858 -0.591883
-38.535801 14.858 -0.64091498
-38.441399 14.858 -0.43841201
-38.461601 14.858 -0.49053499
-38.394402 14.858 -0.277439
-38.4077 14.858 -0.33176199
-38.3689 14.858 -0.111719
-38.375 14.858 -0.167312
-38.365299 14.858 0.055913001
-38.364101 14.858 -0
-38.383499 14.858 0.222587
-38.375 14.858 0.167312
-38.423401 14.858 0.385454
-38.4077 14.858 0.33176199
-38.4842 14.858 0.54172498
-38.461601 14.858 0.49053499
-38.5648 14.858 0.68872702
-38.535801 14.858 0.64091498
-38.664001 14.858 0.82394397
-38.628899 14.858 0.78032899
-38.7799 14.858 0.94506401
-38.739498 14.858 0.90639102
-38.910702 14.858 1.05001
-38.865601 14.858 1.01694
-39.054001 14.858 1.137
-39.005001 14.858 1.1101
-39.2075 14.858 1.20453
-39.155399 14.858 1.18426
-39.3685 14.858 1.2514499
-39.645901 14.858 0
-39.314098 14.858 1.23815
-39.534199 14.858 1.27695
-39.4786 14.858 1.27086
