# .PCD v0.7 - Point Cloud Data file format
VERSION 0.7
FIELDS x y z
SIZE 4 4 4
TYPE F F F
COUNT 1 1 1
WIDTH 589
HEIGHT 1
VIEWPOINT 0 0 0 1 0 0 0
POINTS 589
DATA ascii
38.649399 -15.621 -3.1719799
38.787601 -15.621 -3.16292
38.925301 -15.621 -3.14784
39.062199 -15.621 -3.12676
39.198101 -15.621 -3.09974
39.3326 -15.621 -3.0668099
39.465599 -15.621 -3.0280499
39.596802 -15.621 -2.98352
39.725899 -15.621 -2.93332
39.852699 -15.621 -2.8775301
39.976898 -15.621 -2.8162601
40.0984 -15.621 -2.74963
40.216801 -15.621 -2.6777699
40.332001 -15.621 -2.6008101
40.443699 -15.621 -2.5188999
40.551701 -15.621 -2.4321899
40.655899 -15.621 -2.3408599
40.755901 -15.621 -2.24506
40.8517 -15.621 -2.145
40.9431 -15.621 -2.0408499
41.0298 -15.621 -1.93282
41.111698 -15.621 -1.82111
41.188599 -15.621 -1.70593
41.260502 -15.621 -1.5875
41.327099 -15.621 -1.46605
41.388401 -15.621 -1.34181
41.444199 -15.621 -1.2150199
41.4944 -15.621 -1.08591
41.538898 -15.621 -0.954741
41.577702 -15.621 -0.82174999
41.6106 -15.621 -0.68719602
41.6376 -15.621 -0.55133301
41.658699 -15.621 -0.41442099
41.673801 -15.621 -0.276719
41.682899 -15.621 -0.138492
41.685902 -15.621 -0
41.682899 -15.621 0.138492
41.673801 -15.621 0.276719
41.658699 -15.621 0.41442099
41.6376 -15.621 0.55133301
41.6106 -15.621 0.68719602
41.577702 -15.621 0.82174999
41.538898 -15.621 0.954741
41.4944 -15.621 1.08591
41.444199 -15.621 1.2150199
41.388401 -15.621 1.34181
41.327099 -15.621 1.46605
41.260502 -15.621 1.5875
41.188599 -15.621 1.70593
41.111698 -15.621 1.82111
41.0298 -15.621 1.93282
40.9431 -15.621 2.0408499
40.8517 -15.621 2.145
40.755901 -15.621 2.24506
40.655899 -15.621 2.3408599
40.551701 -15.621 2.4321899
40.443699 -15.621 2.5188999
40.332001 -15.621 2.6008101
40.216801 -15.621 2.6777699
40.0984 -15.621 2.74963
39.976898 -15.621 2.8162601
39.852699 -15.621 2.8775301
39.725899 -15.621 2.93332
39.596802 -15.621 2.98352
39.465599 -15.621 3.0280499
39.3326 -15.621 3.0668099
39.198101 -15.621 3.09974
39.062199 -15.621 3.12676
38.925301 -15.621 3.14784
38.787601 -15.621 3.16292
38.649399 -15.621 3.1719799
38.510899 -15.621 3.175
38.372398 -15.621 3.1719799
38.2342 -15.621 3.16292
38.0965 -15.621 3.14784
37.959499 -15.621 3.12676
37.8237 -15.621 3.09974
37.689098 -15.621 3.0668099
37.556099 -15.621 3.0280499
37.424999 -15.621 2.98352
37.295898 -15.621 2.93332
37.169102 -15.621 2.8775301
37.0448 -15.621 2.8162601
36.923401 -15.621 2.74963
36.805 -15.621 2.6777699
36.6898 -15.621 2.6008101
36.578098 -15.621 2.5188999
36.470001 -15.621 2.4321899
36.365898 -15.621 2.3408599
36.2658 -15.621 2.24506
36.169998 -15.621 2.145
36.078701 -15.621 2.0408499
35.992001 -15.621 1.93282
35.910099 -15.621 1.82111
35.833099 -15.621 1.70593
35.7612 -15.621 1.5875
35.694599 -15.621 1.46605
35.6334 -15.621 1.34181
35.577599 -15.621 1.2150199
35.527401 -15.621 1.08591
35.4828 -15.621 0.954741
35.444099 -15.621 0.82174999
35.411098 -15.621 0.68719602
35.384102 -15.621 0.55133301
35.362999 -15.621 0.41442099
35.348 -15.621 0.276719
35.338902 -15.621 0.138492
35.335899 -15.621 0
35.338902 -15.621 -0.138492
35.348 -15.621 -0.276719
35.362999 -15.621 -0.41442099
35.384102 -15.621 -0.55133301
35.411098 -15.621 -0.68719602
35.444099 -15.621 -0.82174999
35.4828 -15.621 -0.954741
35.527401 -15.621 -1.08591
35.577599 -15.621 -1.2150199
35.6334 -15.621 -1.34181
35.694599 -15.621 -1.46605
35.7612 -15.621 -1.5875
35.833099 -15.621 -1.70593
35.910099 -15.621 -1.82111
35.992001 -15.621 -1.93282
36.078701 -15.621 -2.0408499
36.169998 -15.621 -2.145
36.2658 -15.621 -2.24506
36.365898 -15.621 -2.3408599
36.470001 -15.621 -2.4321899
36.578098 -15.621 -2.5188999
36.6898 -15.621 -2.6008101
36.805 -15.621 -2.6777699
36.923401 -15.621 -2.74963
37.0448 -15.621 -2.8162601
37.169102 -15.621 -2.8775301
37.295898 -15.621 -2.93332
37.424999 -15.621 -2.98352
37.556099 -15.621 -3.0280499
37.689098 -15.621 -3.0668099
37.959499 -15.621 -3.12676
38.0965 -15.621 -3.14784
38.2342 -15.621 -3.16292
38.372398 -15.621 -3.1719799
38.510899 -15.621 -3.175
37.8237 -15.621 -3.09974
37.480099 -15.621 -4.64961
37.278301 -15.621 -4.6002202
37.0788 -15.621 -4.5420799
36.882 -15.621 -4.4752898
36.688301 -15.621 -4.3999801
36.498199 -15.621 -4.3162899
36.311798 -15.621 -4.22439
36.129601 -15.621 -4.1244502
35.952 -15.621 -4.0166502
35.779202 -15.621 -3.9012101
35.611698 -15.621 -3.7783501
35.4496 -15.621 -3.6482899
35.2934 -15.621 -3.5112801
35.143299 -15.621 -3.3676
34.999599 -15.621 -3.2175
34.862598 -15.621 -3.06128
34.732498 -15.621 -2.89923
34.609699 -15.621 -2.7316599
34.494202 -15.621 -2.5588901
34.386398 -15.621 -2.3812499
34.286499 -15.621 -2.19908
34.194599 -15.621 -2.0127201
34.110901 -15.621 -1.82253
34.035599 -15.621 -1.62887
33.9688 -15.621 -1.43211
33.910702 -15.621 -1.23263
33.861301 -15.621 -1.03079
33.820702 -15.621 -0.82699901
33.789101 -15.621 -0.62163103
33.766499 -15.621 -0.415079
33.752899 -15.621 -0.207737
33.748402 -15.621 -0
33.752899 -15.621 0.207737
33.766499 -15.621 0.415079
33.789101 -15.621 0.62163103
33.820702 -15.621 0.82699901
33.861301 -15.621 1.03079
33.910702 -15.621 1.23263
33.9688 -15.621 1.43211
34.035599 -15.621 1.62887
34.110901 -15.621 1.82253
34.194599 -15.621 2.0127201
34.286499 -15.621 2.19908
34.386398 -15.621 2.3812499
34.494202 -15.621 2.5588901
34.609699 -15.621 2.7316599
34.732498 -15.621 2.89923
34.862598 -15.621 3.06128
34.999599 -15.621 3.2175
35.143299 -15.621 3.3676
35.2934 -15.621 3.5112801
35.4496 -15.621 3.6482899
35.611698 -15.621 3.7783501
35.779202 -15.621 3.9012101
35.952 -15.621 4.0166502
36.129601 -15.621 4.1244502
36.311798 -15.621 4.22439
36.498199 -15.621 4.3162899
36.688301 -15.621 4.3999801
36.882 -15.621 4.4752898
37.0788 -15.621 4.5420799
37.278301 -15.621 4.6002202
37.480099 -15.621 4.64961
37.683899 -15.621 4.6901498
37.889198 -15.621 4.7217598
38.095798 -15.621 4.74438
38.303101 -15.621 4.7579699
38.718601 -15.621 4.7579699
38.925999 -15.621 4.74438
39.1325 -15.621 4.7217598
39.337898 -15.621 4.6901498
39.541698 -15.621 4.64961
39.7435 -15.621 4.6002202
39.943001 -15.621 4.5420799
40.139702 -15.621 4.4752898
40.333401 -15.621 4.3999801
40.523602 -15.621 4.3162899
40.709999 -15.621 4.22439
40.892101 -15.621 4.1244502
41.069801 -15.621 4.0166502
41.2425 -15.621 3.9012101
41.410099 -15.621 3.7783501
41.572201 -15.621 3.6482899
41.728401 -15.621 3.5112801
41.878502 -15.621 3.3676
42.022202 -15.621 3.2175
42.159199 -15.621 3.06128
42.2892 -15.621 2.89923
42.412102 -15.621 2.7316599
42.5275 -15.621 2.5588901
42.6353 -15.621 2.3812499
42.735298 -15.621 2.19908
42.827202 -15.621 2.0127201
42.9109 -15.621 1.82253
42.986198 -15.621 1.62887
43.053001 -15.621 1.43211
43.111099 -15.621 1.23263
43.1605 -15.621 1.03079
43.201 -15.621 0.82699901
43.232601 -15.621 0.62163103
43.255299 -15.621 0.415079
43.268799 -15.621 0.207737
43.273399 -15.621 0
43.268799 -15.621 -0.207737
43.255299 -15.621 -0.415079
43.232601 -15.621 -0.62163103
43.201 -15.621 -0.82699901
43.1605 -15.621 -1.03079
43.111099 -15.621 -1.23263
43.053001 -15.621 -1.43211
42.986198 -15.621 -1.62887
42.9109 -15.621 -1.82253
42.827202 -15.621 -2.0127201
42.735298 -15.621 -2.19908
42.6353 -15.621 -2.3812499
42.5275 -15.621 -2.5588901
42.412102 -15.621 -2.7316599
42.2892 -15.621 -2.89923
42.159199 -15.621 -3.06128
42.022202 -15.621 -3.2175
41.878502 -15.621 -3.3676
41.728401 -15.621 -3.5112801
41.572201 -15.621 -3.6482899
41.410099 -15.621 -3.7783501
41.2425 -15.621 -3.9012101
41.069801 -15.621 -4.0166502
40.892101 -15.621 -4.1244502
40.709999 -15.621 -4.22439
40.523602 -15.621 -4.3162899
40.333401 -15.621 -4.3999801
40.139702 -15.621 -4.4752898
39.943001 -15.621 -4.5420799
39.7435 -15.621 -4.6002202
39.541698 -15.621 -4.64961
39.337898 -15.621 -4.6901498
39.1325 -15.621 -4.7217598
38.925999 -15.621 -4.74438
38.718601 -15.621 -4.7579699
38.510899 -15.621 -4.7624998
38.303101 -15.621 -4.7579699
38.095798 -15.621 -4.74438
37.889198 -15.621 -4.7217598
37.683899 -15.621 -4.6901498
38.510899 -15.621 4.7624998
38.718601 -18.129299 4.7579699
38.925999 -18.129299 4.74438
39.1325 -18.129299 4.7217598
39.337898 -18.129299 4.6901498
39.541698 -18.129299 4.64961
39.7435 -18.129299 4.6002202
39.943001 -18.129299 4.5420799
40.139702 -18.129299 4.4752898
40.333401 -18.129299 4.3999801
40.523602 -18.129299 4.3162899
40.709999 -18.129299 4.22439
40.892101 -18.129299 4.1244502
41.069801 -18.129299 4.0166502
41.2425 -18.129299 3.9012101
41.410099 -18.129299 3.7783501
41.572201 -18.129299 3.6482899
41.728401 -18.129299 3.5112801
41.878502 -18.129299 3.3676
42.022202 -18.129299 3.2175
42.159199 -18.129299 3.06128
42.2892 -18.129299 2.89923
42.412102 -18.129299 2.7316599
42.5275 -18.129299 2.5588901
42.6353 -18.129299 2.3812499
42.735298 -18.129299 2.19908
42.827202 -18.129299 2.0127201
42.9109 -18.129299 1.82253
42.986198 -18.129299 1.62887
43.053001 -18.129299 1.43211
43.111099 -18.129299 1.23263
43.1605 -18.129299 1.03079
43.201 -18.129299 0.82699901
43.232601 -18.129299 0.62163103
43.255299 -18.129299 0.415079
43.268799 -18.129299 0.207737
43.273399 -18.129299 0
43.268799 -18.129299 -0.207737
43.255299 -18.129299 -0.415079
43.232601 -18.129299 -0.62163103
43.201 -18.129299 -0.82699901
43.1605 -18.129299 -1.03079
43.111099 -18.129299 -1.23263
43.053001 -18.129299 -1.43211
42.986198 -18.129299 -1.62887
42.9109 -18.129299 -1.82253
42.827202 -18.129299 -2.0127201
42.735298 -18.129299 -2.19908
42.6353 -18.129299 -2.3812499
42.5275 -18.129299 -2.5588901
42.412102 -18.129299 -2.7316599
42.2892 -18.129299 -2.89923
42.159199 -18.129299 -3.06128
42.022202 -18.129299 -3.2175
41.878502 -18.129299 -3.3676
41.728401 -18.129299 -3.5112801
41.572201 -18.129299 -3.6482899
41.410099 -18.129299 -3.7783501
41.2425 -18.129299 -3.9012101
41.069801 -18.129299 -4.0166502
40.892101 -18.129299 -4.1244502
40.709999 -18.129299 -4.22439
40.523602 -18.129299 -4.3162899
40.333401 -18.129299 -4.3999801
40.139702 -18.129299 -4.4752898
39.943001 -18.129299 -4.5420799
39.7435 -18.129299 -4.6002202
39.541698 -18.129299 -4.64961
39.337898 -18.129299 -4.6901498
39.1325 -18.129299 -4.7217598
38.925999 -18.129299 -4.74438
38.718601 -18.129299 -4.7579699
38.510899 -18.129299 -4.7624998
38.303101 -18.129299 -4.7579699
38.095798 -18.129299 -4.74438
37.889198 -18.129299 -4.7217598
37.683899 -18.129299 -4.6901498
37.480099 -18.129299 -4.64961
37.278301 -18.129299 -4.6002202
37.0788 -18.129299 -4.5420799
36.882 -18.129299 -4.4752898
36.688301 -18.129299 -4.3999801
36.498199 -18.129299 -4.3162899
36.311798 -18.129299 -4.22439
36.129601 -18.129299 -4.1244502
35.952 -18.129299 -4.0166502
35.779202 -18.129299 -3.9012101
35.611698 -18.129299 -3.7783501
35.4496 -18.129299 -3.6482899
35.2934 -18.129299 -3.5112801
35.143299 -18.129299 -3.3676
34.999599 -18.129299 -3.2175
34.862598 -18.129299 -3.06128
34.732498 -18.129299 -2.89923
34.609699 -18.129299 -2.7316599
34.494202 -18.129299 -2.5588901
34.386398 -18.129299 -2.3812499
34.286499 -18.129299 -2.19908
34.194599 -18.129299 -2.0127201
34.110901 -18.129299 -1.82253
34.035599 -18.129299 -1.62887
33.9688 -18.129299 -1.43211
33.910702 -18.129299 -1.23263
33.861301 -18.129299 -1.03079
33.820702 -18.129299 -0.82699901
33.789101 -18.129299 -0.62163103
33.766499 -18.129299 -0.415079
33.752899 -18.129299 -0.207737
33.748402 -18.129299 -0
33.752899 -18.129299 0.207737
33.766499 -18.129299 0.415079
33.789101 -18.129299 0.62163103
33.820702 -18.129299 0.82699901
33.861301 -18.129299 1.03079
33.910702 -18.129299 1.23263
33.9688 -18.129299 1.43211
34.035599 -18.129299 1.62887
34.110901 -18.129299 1.82253
34.194599 -18.129299 2.0127201
34.286499 -18.129299 2.19908
34.386398 -18.129299 2.3812499
34.494202 -18.129299 2.5588901
34.609699 -18.129299 2.7316599
34.732498 -18.129299 2.89923
34.862598 -18.129299 3.06128
34.999599 -18.129299 3.2175
35.143299 -18.129299 3.3676
35.2934 -18.129299 3.5112801
35.4496 -18.129299 3.6482899
35.611698 -18.129299 3.7783501
35.779202 -18.129299 3.9012101
35.952 -18.129299 4.0166502
36.129601 -18.129299 4.1244502
36.311798 -18.129299 4.22439
36.498199 -18.129299 4.3162899
36.688301 -18.129299 4.3999801
36.882 -18.129299 4.4752898
37.0788 -18.129299 4.5420799
37.278301 -18.129299 4.6002202
37.480099 -18.129299 4.64961
37.683899 -18.129299 4.6901498
37.889198 -18.129299 4.7217598
38.095798 -18.129299 4.74438
38.303101 -18.129299 4.7579699
38.510899 -18.129299 4.7624998
40.5322 -18.796 3.8829401
40.699699 -18.796 3.79107
41.324699 -18.796 3.3534
41.4683 -18.796 3.2274699
42.096802 -18.796 2.51086
42.888401 -18.796 0
42.821899 -18.796 -0.76015401
42.555199 -18.796 -1.67522
41.983799 -18.796 -2.66488
40.1861 -18.796 -4.0443301
39.458401 -18.796 -4.2737899
38.701801 -18.796 -4.3733902
37.1945 -18.796 -4.1749501
36.158798 -18.796 -3.6919899
35.553398 -18.796 -3.2274699
35.415501 -18.796 -3.0954001
34.818901 -18.796 -2.3520601
34.199799 -18.796 -0.76015401
34.335899 -18.796 1.31636
34.543499 -18.796 1.8500299
34.627899 -18.796 2.0213301
34.719799 -18.796 2.1887801
36.489601 -18.796 3.8829401
37.1945 -18.796 4.1749501
37.939499 -18.796 4.3400998
36.322102 -18.796 3.79107
36.322102 -18.796 -3.79107
36.489601 -18.796 -3.8829401
36.660801 -18.796 -3.9674101
40.360901 -18.796 -3.9674101
40.5322 -18.796 -3.8829401
40.699699 -18.796 -3.79107
40.360901 -18.796 3.9674101
42.8843 -18.796 0.190946
41.1758 -18.796 3.47295
42.851002 -18.796 -0.57138503
41.021702 -18.796 3.58588
40.8629 -18.796 3.6919899
40.8629 -18.796 -3.6919899
41.021702 -18.796 -3.58588
41.1758 -18.796 -3.47295
42.624401 -18.796 -1.49721
42.685799 -18.796 -1.31636
37.377899 -18.796 -4.2283902
39.643902 -18.796 -4.2283902
34.282501 -18.796 1.13299
34.237099 -18.796 0.94747603
37.013699 -18.796 4.1135502
42.871799 -18.796 0.381529
42.851002 -18.796 0.57138503
42.821899 -18.796 0.76015401
42.784698 -18.796 0.94747603
42.7393 -18.796 1.13299
42.685799 -18.796 1.31636
42.7393 -18.796 -1.13299
42.784698 -18.796 -0.94747603
42.871799 -18.796 -0.381529
42.8843 -18.796 -0.190946
36.835701 -18.796 -4.0443301
37.013699 -18.796 -4.1135502
39.827202 -18.796 -4.1749501
40.008099 -18.796 -4.1135502
37.914001 -18.796 -1.03386
34.924999 -18.796 -2.51086
35.037899 -18.796 -2.66488
34.199799 -18.796 0.76015401
34.170799 -18.796 0.57138503
34.150002 -18.796 0.381529
34.137501 -18.796 0.190946
34.133301 -18.796 -0
34.137501 -18.796 -0.190946
36.835701 -18.796 4.0443301
36.660801 -18.796 3.9674101
38.892399 -18.796 -4.3608899
34.237099 -18.796 -0.94747603
34.282501 -18.796 -1.13299
34.335899 -18.796 -1.31636
34.397301 -18.796 -1.49721
34.466499 -18.796 -1.67522
34.543499 -18.796 -1.8500299
34.627899 -18.796 -2.0213301
34.719799 -18.796 -2.1887801
35.696999 -18.796 -3.3534
34.466499 -18.796 1.67522
34.397301 -18.796 1.49721
40.1861 -18.796 4.0443301
40.008099 -18.796 4.1135502
39.827202 -18.796 4.1749501
39.643902 -18.796 4.2283902
39.458401 -18.796 4.2737899
39.271 -18.796 4.3110499
37.750702 -18.796 4.3110499
41.983799 -18.796 2.66488
41.8643 -18.796 2.8138399
42.096802 -18.796 -2.51086
42.2029 -18.796 -2.3520601
42.301899 -18.796 -2.1887801
42.393799 -18.796 -2.0213301
39.7047 -18.796 0
42.478298 -18.796 -1.8500299
37.5634 -18.796 -4.2737899
37.750702 -18.796 -4.3110499
37.939499 -18.796 -4.3400998
38.129299 -18.796 -4.3608899
38.319901 -18.796 -4.3733902
39.1078 -18.796 -1.03386
38.510899 -18.796 -4.3775501
39.082298 -18.796 -4.3400998
39.271 -18.796 -4.3110499
34.150002 -18.796 -0.381529
34.170799 -18.796 -0.57138503
35.157501 -18.796 -2.8138399
35.283401 -18.796 -2.9574299
35.846001 -18.796 -3.47295
36 -18.796 -3.58588
37.317101 -18.796 0
39.082298 -18.796 4.3400998
38.892399 -18.796 4.3608899
38.701801 -18.796 4.3733902
37.5634 -18.796 4.2737899
37.377899 -18.796 4.2283902
42.624401 -18.796 1.49721
42.555199 -18.796 1.67522
42.478298 -18.796 1.8500299
41.324699 -18.796 -3.3534
41.4683 -18.796 -3.2274699
41.6063 -18.796 -3.0954001
36.158798 -18.796 3.6919899
36 -18.796 3.58588
35.846001 -18.796 3.47295
35.696999 -18.796 3.3534
35.553398 -18.796 3.2274699
35.415501 -18.796 3.0954001
35.283401 -18.796 2.9574299
35.157501 -18.796 2.8138399
35.037899 -18.796 2.66488
42.393799 -18.796 2.0213301
42.301899 -18.796 2.1887801
39.1078 -18.796 1.03386
42.2029 -18.796 2.3520601
41.7383 -18.796 2.9574299
41.6063 -18.796 3.0954001
41.7383 -18.796 -2.9574299
41.8643 -18.796 -2.8138399
34.924999 -18.796 2.51086
34.818901 -18.796 2.3520601
38.510899 -18.796 4.3775501
38.319901 -18.796 4.3733902
38.129299 -18.796 4.3608899
38.510899 -16.1696 -0
37.914001 -18.796 1.03386
39.1078 -16.4084 1.03386
39.7047 -16.4084 0
39.1078 -16.4084 -1.03386
37.914001 -16.4084 -1.03386
37.317101 -16.4084 0
37.914001 -16.4084 1.03386
