# .PCD v0.7 - Point Cloud Data file format
VERSION 0.7
FIELDS x y z
SIZE 4 4 4
TYPE F F F
COUNT 1 1 1
WIDTH 589
HEIGHT 1
VIEWPOINT 0 0 0 1 0 0 0
POINTS 589
DATA ascii
-24.9083 -41.655998 -26.820999
-24.846399 -41.655998 -26.816999
-24.7847 -41.655998 -26.8102
-24.723301 -41.655998 -26.8008
-24.6625 -41.655998 -26.7887
-24.6022 -41.655998 -26.773899
-24.542601 -41.655998 -26.756599
-24.483801 -41.655998 -26.736601
-24.426001 -41.655998 -26.7141
-24.3692 -41.655998 -26.6891
-24.313499 -41.655998 -26.661699
-24.2591 -41.655998 -26.6318
-24.2061 -41.655998 -26.5996
-24.154499 -41.655998 -26.565201
-24.104401 -41.655998 -26.5285
-24.056 -41.655998 -26.489599
-24.009399 -41.655998 -26.4487
-23.9645 -41.655998 -26.4058
-23.9216 -41.655998 -26.361
-23.880699 -41.655998 -26.314301
-23.8419 -41.655998 -26.2659
-23.805201 -41.655998 -26.2159
-23.7707 -41.655998 -26.164301
-23.738501 -41.655998 -26.1112
-23.708599 -41.655998 -26.056801
-23.6812 -41.655998 -26.001101
-23.6562 -41.655998 -25.9443
-23.633699 -41.655998 -25.886499
-23.6138 -41.655998 -25.8277
-23.596399 -41.655998 -25.768101
-23.5816 -41.655998 -25.707899
-23.5695 -41.655998 -25.646999
-23.560101 -41.655998 -25.585699
-23.553301 -41.655998 -25.524
-23.549299 -41.655998 -25.462
-23.547899 -41.655998 -25.4
-23.549299 -41.655998 -25.337999
-23.553301 -41.655998 -25.275999
-23.560101 -41.655998 -25.2143
-23.5695 -41.655998 -25.153
-23.5816 -41.655998 -25.0921
-23.596399 -41.655998 -25.0319
-23.6138 -41.655998 -24.9723
-23.633699 -41.655998 -24.9135
-23.6562 -41.655998 -24.8557
-23.6812 -41.655998 -24.798901
-23.708599 -41.655998 -24.7432
-23.738501 -41.655998 -24.688801
-23.7707 -41.655998 -24.6357
-23.805201 -41.655998 -24.584101
-23.8419 -41.655998 -24.5341
-23.880699 -41.655998 -24.485701
-23.9216 -41.655998 -24.438999
-23.9645 -41.655998 -24.394199
-24.009399 -41.655998 -24.351299
-24.056 -41.655998 -24.3104
-24.104401 -41.655998 -24.2715
-24.154499 -41.655998 -24.2348
-24.2061 -41.655998 -24.200399
-24.2591 -41.655998 -24.1682
-24.313499 -41.655998 -24.1383
-24.3692 -41.655998 -24.110901
-24.426001 -41.655998 -24.085899
-24.483801 -41.655998 -24.0634
-24.542601 -41.655998 -24.0434
-24.6022 -41.655998 -24.0261
-24.6625 -41.655998 -24.011299
-24.723301 -41.655998 -23.999201
-24.7847 -41.655998 -23.989799
-24.846399 -41.655998 -23.983
-24.9083 -41.655998 -23.979
-24.970301 -41.655998 -23.9776
-25.0324 -41.655998 -23.979
-25.094299 -41.655998 -23.983
-25.156 -41.655998 -23.989799
-25.2173 -41.655998 -23.999201
-25.2782 -41.655998 -24.011299
-25.338499 -41.655998 -24.0261
-25.398001 -41.655998 -24.0434
-25.4568 -41.655998 -24.0634
-25.5147 -41.655998 -24.085899
-25.571501 -41.655998 -24.110901
-25.6271 -41.655998 -24.1383
-25.681499 -41.655998 -24.1682
-25.7346 -41.655998 -24.200399
-25.7862 -41.655998 -24.2348
-25.836201 -41.655998 -24.2715
-25.8846 -41.655998 -24.3104
-25.931299 -41.655998 -24.351299
-25.976101 -41.655998 -24.394199
-26.018999 -41.655998 -24.438999
-26.0599 -41.655998 -24.485701
-26.098801 -41.655998 -24.5341
-26.1355 -41.655998 -24.584101
-26.17 -41.655998 -24.6357
-26.2022 -41.655998 -24.688801
-26.232 -41.655998 -24.7432
-26.259501 -41.655998 -24.798901
-26.2845 -41.655998 -24.8557
-26.3069 -41.655998 -24.9135
-26.3269 -41.655998 -24.9723
-26.344299 -41.655998 -25.0319
-26.358999 -41.655998 -25.0921
-26.371099 -41.655998 -25.153
-26.3806 -41.655998 -25.2143
-26.3873 -41.655998 -25.275999
-26.391399 -41.655998 -25.337999
-26.3927 -41.655998 -25.4
-26.391399 -41.655998 -25.462
-26.3873 -41.655998 -25.524
-26.3806 -41.655998 -25.585699
-26.371099 -41.655998 -25.646999
-26.358999 -41.655998 -25.707899
-26.344299 -41.655998 -25.768101
-26.3269 -41.655998 -25.8277
-26.2845 -41.655998 -25.9443
-26.259501 -41.655998 -26.001101
-26.232 -41.655998 -26.056801
-26.2022 -41.655998 -26.1112
-26.17 -41.655998 -26.164301
-26.1355 -41.655998 -26.2159
-26.098801 -41.655998 -26.2659
-26.0599 -41.655998 -26.314301
-26.018999 -41.655998 -26.361
-25.976101 -41.655998 -26.4058
-25.931299 -41.655998 -26.4487
-25.8846 -41.655998 -26.489599
-25.836201 -41.655998 -26.5285
-25.7862 -41.655998 -26.565201
-25.7346 -41.655998 -26.5996
-25.681499 -41.655998 -26.6318
-25.6271 -41.655998 -26.661699
-25.571501 -41.655998 -26.6891
-25.5147 -41.655998 -26.7141
-25.4568 -41.655998 -26.736601
-25.398001 -41.655998 -26.756599
-25.338499 -41.655998 -26.773899
-25.2782 -41.655998 -26.7887
-25.2173 -41.655998 -26.8008
-25.156 -41.655998 -26.8102
-25.094299 -41.655998 -26.816999
-25.0324 -41.655998 -26.820999
-24.970301 -41.655998 -26.822399
-26.3069 -41.655998 -25.886499
-27.154301 -41.655998 -26.194901
-27.186899 -41.655998 -26.0989
-27.2152 -41.655998 -26.001499
-27.2393 -41.655998 -25.903
-27.2591 -41.655998 -25.8036
-27.2745 -41.655998 -25.7034
-27.285601 -41.655998 -25.6026
-27.2922 -41.655998 -25.5014
-27.294399 -41.655998 -25.4
-27.2922 -41.655998 -25.298599
-27.285601 -41.655998 -25.197399
-27.2745 -41.655998 -25.0966
-27.2591 -41.655998 -24.996401
-27.2393 -41.655998 -24.896999
-27.2152 -41.655998 -24.7985
-27.186899 -41.655998 -24.701099
-27.154301 -41.655998 -24.605101
-27.1175 -41.655998 -24.510599
-27.0767 -41.655998 -24.417801
-27.031799 -41.655998 -24.326799
-26.983101 -41.655998 -24.2379
-26.9305 -41.655998 -24.1513
-26.8741 -41.655998 -24.066999
-26.814199 -41.655998 -23.985201
-26.7507 -41.655998 -23.906099
-26.6838 -41.655998 -23.829901
-26.613701 -41.655998 -23.756599
-26.540501 -41.655998 -23.686501
-26.464199 -41.655998 -23.6196
-26.385099 -41.655998 -23.5562
-26.3034 -41.655998 -23.496201
-26.219101 -41.655998 -23.439899
-26.132401 -41.655998 -23.3873
-26.043501 -41.655998 -23.338499
-25.952499 -41.655998 -23.2936
-25.859699 -41.655998 -23.2528
-25.7652 -41.655998 -23.216101
-25.669201 -41.655998 -23.1835
-25.5718 -41.655998 -23.1551
-25.4734 -41.655998 -23.131001
-25.373899 -41.655998 -23.1112
-25.273701 -41.655998 -23.0958
-25.172899 -41.655998 -23.0847
-25.071699 -41.655998 -23.0781
-24.8689 -41.655998 -23.0781
-24.767799 -41.655998 -23.0847
-24.667 -41.655998 -23.0958
-24.5667 -41.655998 -23.1112
-24.4673 -41.655998 -23.131001
-24.368799 -41.655998 -23.1551
-24.2715 -41.655998 -23.1835
-24.1754 -41.655998 -23.216101
-24.0809 -41.655998 -23.2528
-23.9881 -41.655998 -23.2936
-23.8972 -41.655998 -23.338499
-23.8083 -41.655998 -23.3873
-23.7216 -41.655998 -23.439899
-23.6373 -41.655998 -23.496201
-23.5555 -41.655998 -23.5562
-23.4764 -41.655998 -23.6196
-23.4002 -41.655998 -23.686501
-23.3269 -41.655998 -23.756599
-23.2568 -41.655998 -23.829901
-23.190001 -41.655998 -23.906099
-23.126499 -41.655998 -23.985201
-23.0665 -41.655998 -24.066999
-23.010201 -41.655998 -24.1513
-22.9576 -41.655998 -24.2379
-22.9088 -41.655998 -24.326799
-22.864 -41.655998 -24.417801
-22.823099 -41.655998 -24.510599
-22.7864 -41.655998 -24.605101
-22.753799 -41.655998 -24.701099
-22.725401 -41.655998 -24.7985
-22.7013 -41.655998 -24.896999
-22.681499 -41.655998 -24.996401
-22.6661 -41.655998 -25.0966
-22.6551 -41.655998 -25.197399
-22.648399 -41.655998 -25.298599
-22.6462 -41.655998 -25.4
-22.648399 -41.655998 -25.5014
-22.6551 -41.655998 -25.6026
-22.6661 -41.655998 -25.7034
-22.681499 -41.655998 -25.8036
-22.7013 -41.655998 -25.903
-22.725401 -41.655998 -26.001499
-22.753799 -41.655998 -26.0989
-22.7864 -41.655998 -26.194901
-22.823099 -41.655998 -26.2894
-22.864 -41.655998 -26.3822
-22.9088 -41.655998 -26.473101
-22.9576 -41.655998 -26.562
-23.010201 -41.655998 -26.648701
-23.0665 -41.655998 -26.733
-23.126499 -41.655998 -26.8148
-23.190001 -41.655998 -26.8939
-23.2568 -41.655998 -26.9701
-23.3269 -41.655998 -27.0434
-23.4002 -41.655998 -27.113501
-23.4764 -41.655998 -27.180401
-23.5555 -41.655998 -27.243799
-23.6373 -41.655998 -27.303801
-23.7216 -41.655998 -27.3601
-23.8083 -41.655998 -27.412701
-23.8972 -41.655998 -27.4615
-23.9881 -41.655998 -27.5063
-24.0809 -41.655998 -27.547199
-24.1754 -41.655998 -27.5839
-24.2715 -41.655998 -27.616501
-24.368799 -41.655998 -27.644899
-24.4673 -41.655998 -27.669001
-24.5667 -41.655998 -27.688801
-24.667 -41.655998 -27.704201
-24.767799 -41.655998 -27.7153
-24.8689 -41.655998 -27.721901
-24.970301 -41.655998 -27.7241
-25.071699 -41.655998 -27.721901
-25.172899 -41.655998 -27.7153
-25.273701 -41.655998 -27.704201
-25.373899 -41.655998 -27.688801
-25.4734 -41.655998 -27.669001
-25.5718 -41.655998 -27.644899
-25.669201 -41.655998 -27.616501
-25.7652 -41.655998 -27.5839
-25.859699 -41.655998 -27.547199
-25.952499 -41.655998 -27.5063
-26.043501 -41.655998 -27.4615
-26.132401 -41.655998 -27.412701
-26.219101 -41.655998 -27.3601
-26.3034 -41.655998 -27.303801
-26.385099 -41.655998 -27.243799
-26.464199 -41.655998 -27.180401
-26.540501 -41.655998 -27.113501
-26.613701 -41.655998 -27.0434
-26.6838 -41.655998 -26.9701
-26.7507 -41.655998 -26.8939
-26.814199 -41.655998 -26.8148
-26.8741 -41.655998 -26.733
-26.9305 -41.655998 -26.648701
-26.983101 -41.655998 -26.562
-27.031799 -41.655998 -26.473101
-27.0767 -41.655998 -26.3822
-27.1175 -41.655998 -26.2894
-24.970301 -41.655998 -23.075899
-24.8689 -44.124599 -23.0781
-24.767799 -44.124599 -23.0847
-24.667 -44.124599 -23.0958
-24.5667 -44.124599 -23.1112
-24.4673 -44.124599 -23.131001
-24.368799 -44.124599 -23.1551
-24.2715 -44.124599 -23.1835
-24.1754 -44.124599 -23.216101
-24.0809 -44.124599 -23.2528
-23.9881 -44.124599 -23.2936
-23.8972 -44.124599 -23.338499
-23.8083 -44.124599 -23.3873
-23.7216 -44.124599 -23.439899
-23.6373 -44.124599 -23.496201
-23.5555 -44.124599 -23.5562
-23.4764 -44.124599 -23.6196
-23.4002 -44.124599 -23.686501
-23.3269 -44.124599 -23.756599
-23.2568 -44.124599 -23.829901
-23.190001 -44.124599 -23.906099
-23.126499 -44.124599 -23.985201
-23.0665 -44.124599 -24.066999
-23.010201 -44.124599 -24.1513
-22.9576 -44.124599 -24.2379
-22.9088 -44.124599 -24.326799
-22.864 -44.124599 -24.417801
-22.823099 -44.124599 -24.510599
-22.7864 -44.124599 -24.605101
-22.753799 -44.124599 -24.701099
-22.725401 -44.124599 -24.7985
-22.7013 -44.124599 -24.896999
-22.681499 -44.124599 -24.996401
-22.6661 -44.124599 -25.0966
-22.6551 -44.124599 -25.197399
-22.648399 -44.124599 -25.298599
-22.6462 -44.124599 -25.4
-22.648399 -44.124599 -25.5014
-22.6551 -44.124599 -25.6026
-22.6661 -44.124599 -25.7034
-22.681499 -44.124599 -25.8036
-22.7013 -44.124599 -25.903
-22.725401 -44.124599 -26.001499
-22.753799 -44.124599 -26.0989
-22.7864 -44.124599 -26.194901
-22.823099 -44.124599 -26.2894
-22.864 -44.124599 -26.3822
-22.9088 -44.124599 -26.473101
-22.9576 -44.124599 -26.562
-23.010201 -44.124599 -26.648701
-23.0665 -44.124599 -26.733
-23.126499 -44.124599 -26.8148
-23.190001 -44.124599 -26.8939
-23.2568 -44.124599 -26.9701
-23.3269 -44.124599 -27.0434
-23.4002 -44.124599 -27.113501
-23.4764 -44.124599 -27.180401
-23.5555 -44.124599 -27.243799
-23.6373 -44.124599 -27.303801
-23.7216 -44.124599 -27.3601
-23.8083 -44.124599 -27.412701
-23.8972 -44.124599 -27.4615
-23.9881 -44.124599 -27.5063
-24.0809 -44.124599 -27.547199
-24.1754 -44.124599 -27.5839
-24.2715 -44.124599 -27.616501
-24.368799 -44.124599 -27.644899
-24.4673 -44.124599 -27.669001
-24.5667 -44.124599 -27.688801
-24.667 -44.124599 -27.704201
-24.767799 -44.124599 -27.7153
-24.8689 -44.124599 -27.721901
-24.970301 -44.124599 -27.7241
-25.071699 -44.124599 -27.721901
-25.172899 -44.124599 -27.7153
-25.273701 -44.124599 -27.704201
-25.373899 -44.124599 -27.688801
-25.4734 -44.124599 -27.669001
-25.5718 -44.124599 -27.644899
-25.669201 -44.124599 -27.616501
-25.7652 -44.124599 -27.5839
-25.859699 -44.124599 -27.547199
-25.952499 -44.124599 -27.5063
-26.043501 -44.124599 -27.4615
-26.132401 -44.124599 -27.412701
-26.219101 -44.124599 -27.3601
-26.3034 -44.124599 -27.303801
-26.385099 -44.124599 -27.243799
-26.464199 -44.124599 -27.180401
-26.540501 -44.124599 -27.113501
-26.613701 -44.124599 -27.0434
-26.6838 -44.124599 -26.9701
-26.7507 -44.124599 -26.8939
-26.814199 -44.124599 -26.8148
-26.8741 -44.124599 -26.733
-26.9305 -44.124599 -26.648701
-26.983101 -44.124599 -26.562
-27.031799 -44.124599 -26.473101
-27.0767 -44.124599 -26.3822
-27.1175 -44.124599 -26.2894
-27.154301 -44.124599 -26.194901
-27.186899 -44.124599 -26.0989
-27.2152 -44.124599 -26.001499
-27.2393 -44.124599 -25.903
-27.2591 -44.124599 -25.8036
-27.2745 -44.124599 -25.7034
-27.285601 -44.124599 -25.6026
-27.2922 -44.124599 -25.5014
-27.294399 -44.124599 -25.4
-27.2922 -44.124599 -25.298599
-27.285601 -44.124599 -25.197399
-27.2745 -44.124599 -25.0966
-27.2591 -44.124599 -24.996401
-27.2393 -44.124599 -24.896999
-27.2152 -44.124599 -24.7985
-27.186899 -44.124599 -24.701099
-27.154301 -44.124599 -24.605101
-27.1175 -44.124599 -24.510599
-27.0767 -44.124599 -24.417801
-27.031799 -44.124599 -24.326799
-26.983101 -44.124599 -24.2379
-26.9305 -44.124599 -24.1513
-26.8741 -44.124599 -24.066999
-26.814199 -44.124599 -23.985201
-26.7507 -44.124599 -23.906099
-26.6838 -44.124599 -23.829901
-26.613701 -44.124599 -23.756599
-26.540501 -44.124599 -23.686501
-26.464199 -44.124599 -23.6196
-26.385099 -44.124599 -23.5562
-26.3034 -44.124599 -23.496201
-26.219101 -44.124599 -23.439899
-26.132401 -44.124599 -23.3873
-26.043501 -44.124599 -23.338499
-25.952499 -44.124599 -23.2936
-25.859699 -44.124599 -23.2528
-25.7652 -44.124599 -23.216101
-25.669201 -44.124599 -23.1835
-25.5718 -44.124599 -23.1551
-25.4734 -44.124599 -23.131001
-25.373899 -44.124599 -23.1112
-25.273701 -44.124599 -23.0958
-25.172899 -44.124599 -23.0847
-25.071699 -44.124599 -23.0781
-24.970301 -44.124599 -23.075899
-24.8771 -44.450001 -23.2658
-23.745001 -44.450001 -23.650101
-23.459801 -44.450001 -23.8894
-23.2204 -44.450001 -24.1747
-22.8361 -44.450001 -25.4932
-23.034201 -44.450001 -26.302799
-23.2204 -44.450001 -26.625299
-24.2397 -44.450001 -27.4074
-24.8771 -44.450001 -27.534201
-25.701 -44.450001 -27.4074
-26.195601 -44.450001 -27.1499
-26.7202 -44.450001 -26.625299
-27.1045 -44.450001 -25.4932
-27.0984 -44.450001 -25.2138
-26.8652 -44.450001 -24.413601
-25.956699 -44.450001 -23.5051
-25.8731 -44.450001 -23.4639
-25.523199 -44.450001 -23.3365
-25.1565 -44.450001 -23.2719
-25.063499 -44.450001 -23.2658
-24.7841 -44.450001 -27.528099
-26.038401 -44.450001 -23.549999
-24.1528 -44.450001 -27.3736
-24.067499 -44.450001 -27.3361
-23.8225 -44.450001 -23.598301
-24.6915 -44.450001 -27.518
-24.5994 -44.450001 -27.503799
-24.507999 -44.450001 -27.4856
-26.118099 -44.450001 -27.2017
-26.038401 -44.450001 -27.25
-25.956699 -44.450001 -27.294901
-23.9839 -44.450001 -27.294901
-23.902201 -44.450001 -27.25
-23.8225 -44.450001 -27.2017
-25.6127 -44.450001 -27.437401
-25.523199 -44.450001 -27.463499
-25.432699 -44.450001 -27.4856
-25.341299 -44.450001 -27.503799
-25.249201 -44.450001 -27.518
-25.1565 -44.450001 -27.528099
-25.063499 -44.450001 -27.534201
-24.3734 -44.450001 -26.433901
-24.970301 -44.450001 -27.5362
-24.4174 -44.450001 -27.463499
-24.3279 -44.450001 -27.437401
-27.0984 -44.450001 -25.586201
-27.088301 -44.450001 -25.678801
-27.0741 -44.450001 -25.771
-27.055901 -44.450001 -25.8624
-27.0338 -44.450001 -25.9529
-27.0077 -44.450001 -26.0424
-22.9967 -44.450001 -26.217501
-22.9629 -44.450001 -26.1306
-22.933001 -44.450001 -26.0424
-25.8731 -44.450001 -27.3361
-25.7878 -44.450001 -27.3736
-26.977699 -44.450001 -26.1306
-26.944 -44.450001 -26.217501
-26.906401 -44.450001 -26.302799
-26.6651 -44.450001 -26.7005
-26.6068 -44.450001 -26.773199
-26.5453 -44.450001 -26.843201
-26.4809 -44.450001 -26.910601
-26.413601 -44.450001 -26.975
-26.3435 -44.450001 -27.036501
-26.2708 -44.450001 -27.094801
-25.249201 -44.450001 -23.282
-22.834101 -44.450001 -25.4
-22.8361 -44.450001 -25.306801
-23.745001 -44.450001 -27.1499
-23.669901 -44.450001 -27.094801
-23.5972 -44.450001 -27.036501
-23.1686 -44.450001 -26.5478
-23.1203 -44.450001 -26.4681
-23.776501 -44.450001 -25.4
-23.0755 -44.450001 -26.3864
-26.8652 -44.450001 -26.3864
-26.8204 -44.450001 -26.4681
-25.5672 -44.450001 -26.433901
-26.771999 -44.450001 -26.5478
-26.118099 -44.450001 -23.598301
-26.195601 -44.450001 -23.650101
-26.2708 -44.450001 -23.7052
-23.5271 -44.450001 -23.825001
-22.9069 -44.450001 -25.9529
-22.884701 -44.450001 -25.8624
-22.866501 -44.450001 -25.771
-22.8524 -44.450001 -25.678801
-22.842199 -44.450001 -25.586201
-26.906401 -44.450001 -24.4972
-26.944 -44.450001 -24.5825
-26.977699 -44.450001 -24.669399
-23.902201 -44.450001 -23.549999
-23.9839 -44.450001 -23.5051
-24.067499 -44.450001 -23.4639
-25.6127 -44.450001 -23.3626
-22.842199 -44.450001 -25.2138
-22.8524 -44.450001 -25.121201
-22.866501 -44.450001 -25.028999
-23.5972 -44.450001 -23.7635
-23.669901 -44.450001 -23.7052
-23.5271 -44.450001 -26.975
-23.459801 -44.450001 -26.910601
-23.3953 -44.450001 -26.843201
-26.3435 -44.450001 -23.7635
-26.413601 -44.450001 -23.825001
-26.4809 -44.450001 -23.8894
-27.1045 -44.450001 -25.306801
-27.1066 -44.450001 -25.4
-24.1528 -44.450001 -23.426399
-24.2397 -44.450001 -23.392599
-24.3279 -44.450001 -23.3626
-24.970301 -44.450001 -23.2638
-25.341299 -44.450001 -23.2962
-25.432699 -44.450001 -23.3144
-25.701 -44.450001 -23.392599
-25.7878 -44.450001 -23.426399
-23.275499 -44.450001 -24.099501
-23.3339 -44.450001 -26.773199
-23.275499 -44.450001 -26.7005
-26.5453 -44.450001 -23.9568
-26.6068 -44.450001 -24.0268
-26.6651 -44.450001 -24.099501
-24.4174 -44.450001 -23.3365
-24.507999 -44.450001 -23.3144
-24.5994 -44.450001 -23.2962
-24.6915 -44.450001 -23.282
-24.7841 -44.450001 -23.2719
-22.884701 -44.450001 -24.937599
-22.9069 -44.450001 -24.847099
-22.933001 -44.450001 -24.757601
-23.3339 -44.450001 -24.0268
-23.3953 -44.450001 -23.9568
-26.7202 -44.450001 -24.1747
-26.771999 -44.450001 -24.252199
-26.164101 -44.450001 -25.4
-26.8204 -44.450001 -24.3319
-27.0077 -44.450001 -24.757601
-27.0338 -44.450001 -24.847099
-27.055901 -44.450001 -24.937599
-27.0741 -44.450001 -25.028999
-27.088301 -44.450001 -25.121201
-22.9629 -44.450001 -24.669399
-22.9967 -44.450001 -24.5825
-23.034201 -44.450001 -24.4972
-23.0755 -44.450001 -24.413601
-23.1203 -44.450001 -24.3319
-24.3734 -44.450001 -24.3661
-23.1686 -44.450001 -24.252199
-24.970301 -43.025101 -25.4
-25.5672 -44.450001 -24.3661
-24.3734 -43.154598 -24.3661
-23.776501 -43.154598 -25.4
-24.3734 -43.154598 -26.433901
-25.5672 -43.154598 -26.433901
-26.164101 -43.154598 -25.4
-25.5672 -43.154598 -24.3661
