# .PCD v0.7 - Point Cloud Data file format
VERSION 0.7
FIELDS x y z
SIZE 4 4 4
TYPE F F F
COUNT 1 1 1
WIDTH 290
HEIGHT 1
VIEWPOINT 0 0 0 1 0 0 0
POINTS 290
DATA ascii
-13.229 -19.049999 0
-13.229 -12.7 0
-13.2269 -19.049999 -0.095963001
-13.2269 -12.7 0.095963001
-13.2269 -12.7 -0.095963001
-13.2206 -19.049999 -0.191743
-13.2269 -19.049999 0.095963001
-13.2206 -12.7 0.191743
-13.2206 -12.7 -0.191743
-13.2102 -19.049999 -0.28715801
-13.2206 -19.049999 0.191743
-13.2102 -12.7 0.28715801
-13.2102 -12.7 -0.28715801
-13.1956 -19.049999 -0.38202599
-13.2102 -19.049999 0.28715801
-13.1956 -12.7 0.38202599
-13.1956 -12.7 -0.38202599
-13.1768 -19.049999 -0.47616699
-13.1956 -19.049999 0.38202599
-13.1768 -12.7 0.47616699
-13.1768 -12.7 -0.47616699
-13.154 -19.049999 -0.56940198
-13.1768 -19.049999 0.47616699
-13.154 -12.7 0.56940198
-13.154 -12.7 -0.56940198
-13.1272 -19.049999 -0.66155303
-13.154 -19.049999 0.56940198
-13.1272 -12.7 0.66155303
-13.1272 -12.7 -0.66155303
-13.0963 -19.049999 -0.75244403
-13.1272 -19.049999 0.66155303
-13.0963 -12.7 0.75244403
-13.0963 -12.7 -0.75244403
-13.0615 -19.049999 -0.84190398
-13.0963 -19.049999 0.75244403
-13.0615 -12.7 0.84190398
-13.0615 -12.7 -0.84190398
-13.0229 -19.049999 -0.92975998
-13.0615 -19.049999 0.84190398
-13.0229 -12.7 0.92975998
-13.0229 -12.7 -0.92975998
-12.9804 -19.049999 -1.0158499
-13.0229 -19.049999 0.92975998
-12.9804 -12.7 1.0158499
-12.9804 -12.7 -1.0158499
-12.9342 -19.049999 -1.1
-12.9804 -19.049999 1.0158499
-12.9342 -12.7 1.1
-12.9342 -12.7 -1.1
-12.8844 -19.049999 -1.18206
-12.9342 -19.049999 1.1
-12.8844 -12.7 1.18206
-12.8844 -12.7 -1.18206
-12.8311 -19.049999 -1.26187
-12.8844 -19.049999 1.18206
-12.8311 -12.7 1.26187
-12.8311 -12.7 -1.26187
-12.7744 -19.049999 -1.33928
-12.8311 -19.049999 1.26187
-12.7744 -12.7 1.33928
-12.7744 -12.7 -1.33928
-12.7143 -19.049999 -1.41413
-12.7744 -19.049999 1.33928
-12.7143 -12.7 1.41413
-12.7143 -12.7 -1.41413
-12.651 -19.049999 -1.4863
-12.7143 -19.049999 1.41413
-12.651 -12.7 1.4863
-12.651 -12.7 -1.4863
-12.5846 -19.049999 -1.55563
-12.651 -19.049999 1.4863
-12.5846 -12.7 1.55563
-12.5846 -12.7 -1.55563
-12.5153 -19.049999 -1.62201
-12.5846 -19.049999 1.55563
-12.5153 -12.7 1.62201
-12.5153 -12.7 -1.62201
-12.4431 -19.049999 -1.6853
-12.5153 -19.049999 1.62201
-12.4431 -12.7 1.6853
-12.4431 -12.7 -1.6853
-12.4138 -12.7 -1.70884
-12.3683 -19.049999 -1.74538
-12.4431 -19.049999 1.6853
-12.3683 -12.7 1.74538
-12.3683 -12.7 -1.74538
-12.2909 -19.049999 -1.80213
-12.3683 -19.049999 1.74538
-12.2909 -12.7 1.80213
-12.2909 -12.7 -1.80213
-12.211 -19.049999 -1.85546
-12.2909 -19.049999 1.80213
-12.211 -12.7 1.85546
-12.211 -12.7 -1.85546
-12.129 -19.049999 -1.90526
-12.211 -19.049999 1.85546
-12.129 -12.7 1.90526
-12.129 -12.7 -1.90526
-12.0448 -19.049999 -1.9514199
-12.129 -19.049999 1.90526
-12.0448 -12.7 1.9514199
-12.0448 -12.7 -1.9514199
-11.9587 -19.049999 -1.99388
-12.0448 -19.049999 1.9514199
-11.9587 -12.7 1.99388
-11.9587 -12.7 -1.99388
-11.8709 -19.049999 -2.0325301
-11.9587 -19.049999 1.99388
-11.8709 -12.7 2.0325301
-11.8709 -12.7 -2.0325301
-11.7814 -19.049999 -2.0673201
-11.8709 -19.049999 2.0325301
-11.7814 -12.7 2.0673201
-11.7814 -12.7 -2.0673201
-11.6905 -19.049999 -2.0981801
-11.7814 -19.049999 2.0673201
-11.6905 -12.7 2.0981801
-11.6905 -12.7 -2.0981801
-11.5984 -19.049999 -2.1250401
-11.6905 -19.049999 2.0981801
-11.5984 -12.7 2.1250401
-11.5984 -12.7 -2.1250401
-11.5052 -19.049999 -2.14785
-11.5984 -19.049999 2.1250401
-11.5052 -12.7 2.14785
-11.5052 -12.7 -2.14785
-11.411 -19.049999 -2.16658
-11.5052 -19.049999 2.14785
-11.411 -12.7 2.16658
-11.411 -12.7 -2.16658
-11.3161 -19.049999 -2.18118
-11.411 -19.049999 2.16658
-11.3161 -12.7 2.18118
-11.3161 -12.7 -2.18118
-11.2207 -19.049999 -2.1916299
-11.3161 -19.049999 2.18118
-11.2207 -12.7 2.1916299
-11.2207 -12.7 -2.1916299
-11.1788 -12.7 -2.19438
-11.1249 -19.049999 -2.1979101
-11.2207 -19.049999 2.1916299
-11.1249 -12.7 2.1979101
-11.1249 -12.7 -2.1979101
-11.029 -19.049999 -2.2
-11.1249 -19.049999 2.1979101
-11.029 -12.7 2.2
-11.029 -12.7 -2.2
-10.933 -19.049999 -2.1979101
-11.029 -19.049999 2.2
-10.933 -12.7 2.1979101
-10.933 -12.7 -2.1979101
-10.8372 -19.049999 -2.1916299
-10.933 -19.049999 2.1979101
-10.8372 -12.7 2.1916299
-10.8372 -12.7 -2.1916299
-10.7418 -19.049999 -2.18118
-10.8372 -19.049999 2.1916299
-10.7418 -12.7 2.18118
-10.7418 -12.7 -2.18118
-10.647 -19.049999 -2.16658
-10.7418 -19.049999 2.18118
-10.647 -12.7 2.16658
-10.647 -12.7 -2.16658
-10.5528 -19.049999 -2.14785
-10.647 -19.049999 2.16658
-10.5528 -12.7 2.14785
-10.5528 -12.7 -2.14785
-10.4596 -19.049999 -2.1250401
-10.5528 -19.049999 2.14785
-10.4596 -12.7 2.1250401
-10.4596 -12.7 -2.1250401
-10.3674 -19.049999 -2.0981801
-10.4596 -19.049999 2.1250401
-10.3674 -12.7 2.0981801
-10.3674 -12.7 -2.0981801
-10.2765 -19.049999 -2.0673201
-10.3674 -19.049999 2.0981801
-10.2765 -12.7 2.0673201
-10.2765 -12.7 -2.0673201
-10.1871 -19.049999 -2.0325301
-10.2765 -19.049999 2.0673201
-10.1871 -12.7 2.0325301
-10.1871 -12.7 -2.0325301
-10.0992 -19.049999 -1.99388
-10.1871 -19.049999 2.0325301
-10.0992 -12.7 1.99388
-10.0992 -12.7 -1.99388
-10.0131 -19.049999 -1.9514199
-10.0992 -19.049999 1.99388
-10.0131 -12.7 1.9514199
-10.0131 -12.7 -1.9514199
-9.9289904 -19.049999 -1.90526
-10.0131 -19.049999 1.9514199
-9.9289904 -12.7 1.90526
-9.9289904 -12.7 -1.90526
-9.8469296 -19.049999 -1.85546
-9.9289904 -19.049999 1.90526
-9.8469296 -12.7 1.85546
-9.8469296 -12.7 -1.85546
-9.7671204 -19.049999 -1.80213
-9.8469296 -19.049999 1.85546
-9.7671204 -12.7 1.80213
-9.7671204 -12.7 -1.80213
-9.6897097 -19.049999 -1.74538
-9.7671204 -19.049999 1.80213
-9.6897097 -12.7 1.74538
-9.6897097 -12.7 -1.74538
-9.61485 -19.049999 -1.6853
-9.6897097 -19.049999 1.74538
-9.61485 -12.7 1.6853
-9.61485 -12.7 -1.6853
-9.5426903 -19.049999 -1.62201
-9.61485 -19.049999 1.6853
-9.5426903 -12.7 1.62201
-9.5426903 -12.7 -1.62201
-9.4733496 -19.049999 -1.55563
-9.5426903 -19.049999 1.62201
-9.4733496 -12.7 1.55563
-9.4733496 -12.7 -1.55563
-9.4069796 -19.049999 -1.4863
-9.4733496 -19.049999 1.55563
-9.4069796 -12.7 1.4863
-9.4069796 -12.7 -1.4863
-9.3436899 -19.049999 -1.41413
-9.4069796 -19.049999 1.4863
-9.3436899 -12.7 1.41413
-9.3436899 -12.7 -1.41413
-9.2836103 -19.049999 -1.33928
-9.3436899 -19.049999 1.41413
-9.2836103 -12.7 1.33928
-9.2836103 -12.7 -1.33928
-9.2268496 -19.049999 -1.26187
-9.2836103 -19.049999 1.33928
-9.2268496 -12.7 1.26187
-9.2268496 -12.7 -1.26187
-9.1735296 -19.049999 -1.18206
-9.2268496 -19.049999 1.26187
-9.1735296 -12.7 1.18206
-9.1735296 -12.7 -1.18206
-9.1237297 -19.049999 -1.1
-9.1735296 -19.049999 1.18206
-9.1237297 -12.7 1.1
-9.1237297 -12.7 -1.1
-9.0775604 -19.049999 -1.0158499
-9.1237297 -19.049999 1.1
-9.0775604 -12.7 1.0158499
-9.0775604 -12.7 -1.0158499
-9.0351105 -19.049999 -0.92975998
-9.0775604 -19.049999 1.0158499
-9.0351105 -12.7 0.92975998
-9.0351105 -12.7 -0.92975998
-8.9964504 -19.049999 -0.84190398
-9.0351105 -19.049999 0.92975998
-8.9964504 -12.7 0.84190398
-8.9964504 -12.7 -0.84190398
-8.9616604 -19.049999 -0.75244403
-8.9964504 -19.049999 0.84190398
-8.9616604 -12.7 0.75244403
-8.9616604 -12.7 -0.75244403
-8.93081 -19.049999 -0.66155303
-8.9616604 -19.049999 0.75244403
-8.93081 -12.7 0.66155303
-8.93081 -12.7 -0.66155303
-8.9039497 -19.049999 -0.56940198
-8.93081 -19.049999 0.66155303
-8.9039497 -12.7 0.56940198
-8.9039497 -12.7 -0.56940198
-8.8811302 -19.049999 -0.47616699
-8.9039497 -19.049999 0.56940198
-8.8811302 -12.7 0.47616699
-8.8811302 -12.7 -0.47616699
-8.8624096 -19.049999 -0.38202599
-8.8811302 -19.049999 0.47616699
-8.8624096 -12.7 0.38202599
-8.8624096 -12.7 -0.38202599
-8.8478098 -19.049999 -0.28715801
-8.8624096 -19.049999 0.38202599
-8.8478098 -12.7 0.28715801
-8.8478098 -12.7 -0.28715801
-8.8373604 -19.049999 -0.191743
-8.8478098 -19.049999 0.28715801
-8.8373604 -12.7 0.191743
-8.8373604 -12.7 -0.191743
-8.8310804 -19.049999 -0.095963001
-8.8373604 -19.049999 0.191743
-8.8310804 -12.7 0.095963001
-8.8310804 -12.7 -0.095963001
-8.82899 -19.049999 0
-8.8310804 -19.049999 0.095963001
-8.82899 -12.7 0
